# .PCD v0.7 - Point Cloud Data file format
VERSION 0.7
FIELDS x y z
SIZE 4 4 4
TYPE F F F
COUNT 1 1 1
WIDTH 727
HEIGHT 1
VIEWPOINT 0 0 0 1 0 0 0
POINTS 727
DATA ascii
1.15 -0.38999999 0.063796833
1.15 -0.41 0.066155724
1.15 -0.43000001 0.057834495
1.15 -0.44999999 0.059615426
1.13 0.58999997 -0.006427357
1.13 0.56999999 -7.97143e-05
1.13 0.55000001 0.011002315
1.13 0.52999997 0.023416359
1.13 0.50999999 0.011687861
1.13 0.49000001 0.046528116
1.13 0.47 0.078146264
1.13 0.17 0.076422609
1.13 0.15000001 0.071264781
1.13 0.13 0.041787077
1.13 0.11 0.058423825
1.13 0.07 0.064511828
1.13 0.050000001 0.040109493
1.13 0.029999999 0.021320429
1.13 0.0099999998 0.023402004
1.13 -0.0099999998 0.023333661
1.13 -0.029999999 0.030043086
1.13 -0.050000001 0.040138811
1.13 -0.07 0.04028609
1.13 -0.090000004 0.041068804
1.13 -0.11 0.00037945263
1.13 -0.13 -0.0060303514
1.13 -0.15000001 -0.012321495
1.13 -0.17 0.0066662873
1.13 -0.19 0.029870955
1.13 -0.20999999 0.058708679
1.13 -0.25 0.025332963
1.13 -0.27000001 0.00059009291
1.13 -0.28999999 0.00040239151
1.13 -0.31 -0.011060167
1.13 -0.33000001 -0.024076724
1.13 -0.34999999 -0.017263716
1.13 -0.37 -0.030345151
1.13 -0.38999999 -0.041548941
1.13 -0.41 -0.04182145
1.13 -0.43000001 -0.031386912
1.13 -0.44999999 -0.011521352
1.13 -0.47 0.018298408
1.13 -0.49000001 0.042821482
1.13 -0.50999999 0.005245971
1.13 -0.52999997 -0.089752614
1.13 -0.55000001 -0.083592832
1.13 -0.58999997 -0.25205243
1.11 0.67000002 -0.25348786
1.11 0.64999998 -0.253479
1.11 0.63 -0.24553928
1.11 0.61000001 -0.24506845
1.11 0.58999997 -0.25350034
1.11 0.56999999 -0.24415159
1.11 0.55000001 -0.24966946
1.11 0.52999997 -0.054396786
1.11 0.50999999 -0.25213477
1.11 0.49000001 -0.053963624
1.11 0.47 0.0071757543
1.11 0.43000001 0.048995193
1.11 0.41 0.024386995
1.11 0.38999999 0.047726076
1.11 0.37 -0.17127685
1.11 0.34999999 0.036489327
1.11 0.33000001 0.023938682
1.11 0.31 0.030765096
1.11 0.28999999 0.013895197
1.11 0.27000001 0.013049053
1.11 0.25 -0.0052954936
1.11 0.23 -0.013639335
1.11 0.20999999 -0.0058512003
1.11 0.19 -0.022801355
1.11 0.17 -0.023317738
1.11 0.15000001 -0.022793295
1.11 0.13 -0.0241543
1.11 0.11 -0.011619151
1.11 0.090000004 -0.021559391
1.11 0.07 -0.024433525
1.11 0.050000001 -0.059123527
1.11 0.029999999 -0.068991952
1.11 0.0099999998 -0.079314835
1.11 -0.0099999998 -0.070396774
1.11 -0.029999999 -0.065203354
1.11 -0.050000001 -0.053698178
1.11 -0.07 -0.047286805
1.11 -0.090000004 -0.06005536
1.11 -0.11 -0.077856369
1.11 -0.13 -0.093988098
1.11 -0.15000001 -0.088005811
1.11 -0.17 -0.076996505
1.11 -0.19 -0.25232524
1.11 -0.20999999 -0.25508231
1.11 -0.23 -0.24771434
1.11 -0.25 -0.25626478
1.11 -0.27000001 -0.25644082
1.11 -0.28999999 -0.25575769
1.11 -0.31 -0.25699708
1.11 -0.33000001 -0.25389278
1.11 -0.34999999 -0.25566441
1.11 -0.37 -0.2530781
1.11 -0.38999999 -0.25263661
1.11 -0.41 -0.2543678
1.11 -0.43000001 -0.2537466
1.11 -0.44999999 -0.25635961
1.11 -0.47 -0.25704372
1.11 -0.49000001 -0.25456387
1.11 -0.50999999 -0.25848892
1.11 -0.52999997 -0.25292739
1.11 -0.55000001 -0.25256985
1.11 -0.56999999 -0.25575778
1.11 -0.58999997 -0.25589785
1.11 -0.61000001 -0.25689983
1.09 0.67000002 -0.24949431
1.09 0.64999998 -0.25256902
1.09 0.63 -0.24875106
1.09 0.61000001 -0.25051725
1.09 0.58999997 -0.24764672
1.09 0.56999999 -0.25381857
1.09 0.55000001 -0.2571069
1.09 0.52999997 -0.25400561
1.09 0.50999999 -0.2561968
1.09 0.49000001 -0.25698194
1.09 0.47 -0.24783657
1.09 0.44999999 -0.25426996
1.09 0.43000001 -0.2562986
1.09 0.41 -0.029224668
1.09 0.38999999 -0.17665187
1.09 0.37 -0.18455364
1.09 0.34999999 -0.25630501
1.09 0.33000001 -0.2562108
1.09 0.31 -0.25136799
1.09 0.28999999 -0.19580182
1.09 0.27000001 -0.058503952
1.09 0.25 -0.075486161
1.09 0.23 -0.088020369
1.09 0.20999999 -0.081544839
1.09 0.19 -0.2402705
1.09 0.17 -0.25184524
1.09 0.15000001 -0.25255075
1.09 0.13 -0.25350001
1.09 0.11 -0.25353891
1.09 0.090000004 -0.25705737
1.09 0.07 -0.25352469
1.09 0.050000001 -0.25295529
1.09 0.029999999 -0.25399455
1.09 0.0099999998 -0.24997625
1.09 -0.0099999998 -0.25238875
1.09 -0.029999999 -0.25334477
1.09 -0.050000001 -0.25358444
1.09 -0.07 -0.25321454
1.09 -0.090000004 -0.25118726
1.09 -0.11 -0.25423697
1.09 -0.13 -0.25187904
1.09 -0.15000001 -0.257018
1.09 -0.17 -0.25400308
1.09 -0.19 -0.25678888
1.09 -0.20999999 -0.25723606
1.09 -0.23 -0.25574437
1.09 -0.25 -0.2564258
1.09 -0.27000001 -0.25586623
1.09 -0.28999999 -0.2583454
1.09 -0.31 -0.25852832
1.09 -0.33000001 -0.25705257
1.09 -0.34999999 -0.25619572
1.09 -0.37 -0.25694945
1.09 -0.38999999 -0.2560561
1.09 -0.41 -0.25666696
1.09 -0.43000001 -0.25688177
1.09 -0.44999999 -0.25789088
1.09 -0.47 -0.25892305
1.09 -0.49000001 -0.25959399
1.09 -0.50999999 -0.25784916
1.09 -0.52999997 -0.25483382
1.09 -0.55000001 -0.2568841
1.09 -0.56999999 -0.25629717
1.09 -0.58999997 -0.25441414
1.09 -0.61000001 -0.25775981
1.0700001 0.64999998 -0.25022805
1.0700001 0.63 -0.25047916
1.0700001 0.61000001 -0.24594092
1.0700001 0.58999997 -0.2482235
1.0700001 0.56999999 -0.25120291
1.0700001 0.55000001 -0.24920109
1.0700001 0.52999997 -0.25588298
1.0700001 0.50999999 -0.25577259
1.0700001 0.49000001 -0.25798658
1.0700001 0.47 -0.25265744
1.0700001 0.44999999 -0.25601861
1.0700001 0.43000001 -0.25183037
1.0700001 0.41 -0.15141429
1.0700001 0.38999999 -0.17725198
1.0700001 0.37 -0.1799175
1.0700001 0.34999999 -0.25641453
1.0700001 0.33000001 -0.25729048
1.0700001 0.31 -0.25383723
1.0700001 0.28999999 -0.25250572
1.0700001 0.27000001 -0.25275299
1.0700001 0.25 -0.25389779
1.0700001 0.23 -0.2042755
1.0700001 0.20999999 -0.20800699
1.0700001 0.19 -0.24705441
1.0700001 0.17 -0.25045863
1.0700001 0.15000001 -0.25246435
1.0700001 0.13 -0.25385484
1.0700001 0.11 -0.25263914
1.0700001 0.090000004 -0.25904047
1.0700001 0.07 -0.25220203
1.0700001 0.050000001 -0.25424978
1.0700001 0.029999999 -0.25218961
1.0700001 0.0099999998 -0.24984469
1.0700001 -0.0099999998 -0.24964717
1.0700001 -0.029999999 -0.25319946
1.0700001 -0.050000001 -0.25507298
1.0700001 -0.07 -0.25313669
1.0700001 -0.090000004 -0.25399005
1.0700001 -0.11 -0.25261998
1.0700001 -0.13 -0.25483376
1.0700001 -0.15000001 -0.25371954
1.0700001 -0.17 -0.25591189
1.0700001 -0.19 -0.24949878
1.0700001 -0.20999999 -0.25629157
1.0700001 -0.23 -0.25663367
1.0700001 -0.25 -0.25546613
1.0700001 -0.27000001 -0.25658816
1.0700001 -0.28999999 -0.25549647
1.0700001 -0.31 -0.25541118
1.0700001 -0.33000001 -0.25666672
1.0700001 -0.34999999 -0.25648704
1.0700001 -0.37 -0.25261194
1.0700001 -0.38999999 -0.25744969
1.0700001 -0.41 -0.2529422
1.0700001 -0.43000001 -0.25193629
1.0700001 -0.44999999 -0.25482765
1.0700001 -0.47 -0.25494137
1.0700001 -0.49000001 -0.25725269
1.0700001 -0.50999999 -0.25669608
1.0700001 -0.52999997 -0.25613365
1.0700001 -0.55000001 -0.25600952
1.0700001 -0.56999999 -0.25516176
1.0700001 -0.58999997 -0.2549952
1.0700001 -0.61000001 -0.25042138
1.05 0.64999998 -0.24670567
1.05 0.63 -0.24780165
1.05 0.61000001 -0.24460255
1.05 0.58999997 -0.25082418
1.05 0.56999999 -0.25262275
1.05 0.55000001 -0.24755025
1.05 0.52999997 -0.24971721
1.05 0.50999999 -0.24983488
1.05 0.49000001 -0.25067633
1.05 0.47 -0.25343519
1.05 0.44999999 -0.2531561
1.05 0.43000001 -0.25247559
1.05 0.41 -0.17553669
1.05 0.38999999 -0.17458613
1.05 0.37 -0.16523549
1.05 0.34999999 -0.25096241
1.05 0.33000001 -0.25545973
1.05 0.31 -0.25057253
1.05 0.28999999 -0.25344875
1.05 0.27000001 -0.25180936
1.05 0.25 -0.25002673
1.05 0.23 -0.21000877
1.05 0.20999999 -0.21405137
1.05 0.19 -0.19709174
1.05 0.17 -0.25001356
1.05 0.15000001 -0.24986394
1.05 0.13 -0.25077757
1.05 0.11 -0.24876453
1.05 0.090000004 -0.25069675
1.05 0.07 -0.2514897
1.05 0.050000001 -0.25065672
1.05 0.029999999 -0.25073546
1.05 0.0099999998 -0.25305891
1.05 -0.0099999998 -0.25084704
1.05 -0.029999999 -0.25001997
1.05 -0.050000001 -0.2502313
1.05 -0.07 -0.25217289
1.05 -0.090000004 -0.25150809
1.05 -0.11 -0.25269264
1.05 -0.13 -0.25261056
1.05 -0.15000001 -0.25121626
1.05 -0.17 -0.25121495
1.05 -0.19 -0.25020358
1.05 -0.20999999 -0.25493491
1.05 -0.23 -0.25273809
1.05 -0.25 -0.25617045
1.05 -0.27000001 -0.25227463
1.05 -0.28999999 -0.25338414
1.05 -0.31 -0.25092205
1.05 -0.33000001 -0.25324696
1.05 -0.34999999 -0.2536557
1.05 -0.37 -0.25616169
1.05 -0.38999999 -0.25404742
1.05 -0.41 -0.25384331
1.05 -0.43000001 -0.25684416
1.05 -0.44999999 -0.25662991
1.05 -0.47 -0.25076869
1.05 -0.49000001 -0.25278032
1.05 -0.50999999 -0.25289622
1.05 -0.52999997 -0.25336662
1.05 -0.55000001 -0.25323442
1.05 -0.56999999 -0.24933845
1.05 -0.58999997 -0.24971166
1.05 -0.61000001 -0.25643122
1.03 0.64999998 -0.24918035
1.03 0.63 -0.24552959
1.03 0.61000001 -0.24938506
1.03 0.58999997 -0.25305745
1.03 0.56999999 -0.2476019
1.03 0.55000001 -0.24904257
1.03 0.52999997 -0.25013876
1.03 0.50999999 -0.24911982
1.03 0.49000001 -0.25291875
1.03 0.47 -0.24979617
1.03 0.44999999 -0.25205514
1.03 0.43000001 -0.24861413
1.03 0.41 -0.24242586
1.03 0.37 -0.149482
1.03 0.34999999 -0.25056148
1.03 0.33000001 -0.25217304
1.03 0.31 -0.25096476
1.03 0.28999999 -0.25005496
1.03 0.27000001 -0.24751259
1.03 0.25 -0.24439357
1.03 0.20999999 -0.19832419
1.03 0.19 -0.24590525
1.03 0.17 -0.24407171
1.03 0.15000001 -0.24829131
1.03 0.13 -0.24620083
1.03 0.11 -0.24839666
1.03 0.090000004 -0.24912758
1.03 0.07 -0.24498986
1.03 0.050000001 -0.24908842
1.03 0.029999999 -0.24841926
1.03 0.0099999998 -0.2501961
1.03 -0.0099999998 -0.25048041
1.03 -0.029999999 -0.25037742
1.03 -0.050000001 -0.25117007
1.03 -0.07 -0.25016734
1.03 -0.090000004 -0.250669
1.03 -0.11 -0.2510044
1.03 -0.13 -0.25294402
1.03 -0.15000001 -0.25242728
1.03 -0.17 -0.25293964
1.03 -0.19 -0.25095248
1.03 -0.20999999 -0.25609577
1.03 -0.23 -0.24952623
1.03 -0.25 -0.25296381
1.03 -0.27000001 -0.25747097
1.03 -0.28999999 -0.2557517
1.03 -0.31 -0.25407967
1.03 -0.33000001 -0.25418344
1.03 -0.34999999 -0.25563008
1.03 -0.37 -0.25743869
1.03 -0.38999999 -0.25708267
1.03 -0.41 -0.25365564
1.03 -0.43000001 -0.25269151
1.03 -0.44999999 -0.25560209
1.03 -0.47 -0.25258431
1.03 -0.49000001 -0.25666961
1.03 -0.50999999 -0.2533007
1.03 -0.52999997 -0.25663072
1.03 -0.55000001 -0.25342444
1.03 -0.56999999 -0.25202385
1.03 -0.58999997 -0.25253814
1.03 -0.61000001 -0.2562145
1.01 0.64999998 -0.24587153
1.01 0.63 -0.24582426
1.01 0.61000001 -0.24456415
1.01 0.58999997 -0.24892724
1.01 0.56999999 -0.24682544
1.01 0.55000001 -0.24938938
1.01 0.52999997 -0.25016394
1.01 0.50999999 -0.25245622
1.01 0.49000001 -0.25444785
1.01 0.47 -0.2516408
1.01 0.44999999 -0.24951451
1.01 0.43000001 -0.25004607
1.01 0.38999999 -0.18414147
1.01 0.37 -0.18636756
1.01 0.34999999 -0.24573979
1.01 0.33000001 -0.2494069
1.01 0.31 -0.24728024
1.01 0.28999999 -0.2467549
1.01 0.27000001 -0.24516197
1.01 0.25 -0.24527334
1.01 0.23 -0.24178392
1.01 0.20999999 -0.23552798
1.01 0.19 -0.24991964
1.01 0.17 -0.24502821
1.01 0.15000001 -0.25274697
1.01 0.13 -0.24976659
1.01 0.11 -0.25224969
1.01 0.090000004 -0.25252718
1.01 0.07 -0.24993712
1.01 0.050000001 -0.25182223
1.01 0.029999999 -0.24977538
1.01 0.0099999998 -0.24923189
1.01 -0.0099999998 -0.25441501
1.01 -0.029999999 -0.2562499
1.01 -0.050000001 -0.25493789
1.01 -0.07 -0.25580579
1.01 -0.090000004 -0.25600561
1.01 -0.11 -0.25305119
1.01 -0.13 -0.25512916
1.01 -0.15000001 -0.25587475
1.01 -0.17 -0.25498071
1.01 -0.19 -0.2555989
1.01 -0.20999999 -0.25391808
1.01 -0.23 -0.2584101
1.01 -0.25 -0.25792423
1.01 -0.27000001 -0.25451171
1.01 -0.28999999 -0.25627786
1.01 -0.31 -0.25608617
1.01 -0.33000001 -0.25483838
1.01 -0.34999999 -0.25568882
1.01 -0.37 -0.25617069
1.01 -0.38999999 -0.25632611
1.01 -0.41 -0.25600368
1.01 -0.43000001 -0.25582969
1.01 -0.44999999 -0.25686422
1.01 -0.47 -0.25665194
1.01 -0.49000001 -0.25757346
1.01 -0.50999999 -0.25548333
1.01 -0.52999997 -0.25739902
1.01 -0.55000001 -0.25538996
1.01 -0.56999999 -0.25529513
1.01 -0.58999997 -0.25462899
0.99000001 0.63 -0.24876177
0.99000001 0.61000001 -0.24861544
0.99000001 0.58999997 -0.25194463
0.99000001 0.56999999 -0.24777924
0.99000001 0.55000001 -0.25259152
0.99000001 0.52999997 -0.25012934
0.99000001 0.50999999 -0.25083902
0.99000001 0.49000001 -0.24919689
0.99000001 0.47 -0.24949385
0.99000001 0.44999999 -0.24568968
0.99000001 0.43000001 -0.24745671
0.99000001 0.38999999 -0.17936079
0.99000001 0.37 -0.2448003
0.99000001 0.34999999 -0.24936883
0.99000001 0.33000001 -0.24832144
0.99000001 0.31 -0.24774899
0.99000001 0.28999999 -0.2485745
0.99000001 0.27000001 -0.25017336
0.99000001 0.25 -0.24437992
0.99000001 0.23 -0.24717963
0.99000001 0.20999999 -0.25027159
0.99000001 0.19 -0.25055695
0.99000001 0.17 -0.2502743
0.99000001 0.15000001 -0.2549684
0.99000001 0.13 -0.25988927
0.99000001 0.11 -0.2573413
0.99000001 0.090000004 -0.25879914
0.99000001 0.07 -0.25378877
0.99000001 0.050000001 -0.25924486
0.99000001 0.029999999 -0.25702044
0.99000001 0.0099999998 -0.25695494
0.99000001 -0.0099999998 -0.25817016
0.99000001 -0.029999999 -0.26060656
0.99000001 -0.050000001 -0.26134044
0.99000001 -0.07 -0.25794592
0.99000001 -0.090000004 -0.2600812
0.99000001 -0.11 -0.26029971
0.99000001 -0.13 -0.25902325
0.99000001 -0.15000001 -0.25844201
0.99000001 -0.17 -0.26077875
0.99000001 -0.19 -0.25979418
0.99000001 -0.20999999 -0.25975984
0.99000001 -0.23 -0.25933176
0.99000001 -0.25 -0.25958252
0.99000001 -0.27000001 -0.25976631
0.99000001 -0.28999999 -0.25920725
0.99000001 -0.31 -0.25698617
0.99000001 -0.33000001 -0.25886777
0.99000001 -0.34999999 -0.25995332
0.99000001 -0.37 -0.26092157
0.99000001 -0.38999999 -0.25627315
0.99000001 -0.41 -0.25529182
0.99000001 -0.43000001 -0.25694853
0.99000001 -0.44999999 -0.26129961
0.99000001 -0.47 -0.25863668
0.99000001 -0.49000001 -0.2593905
0.99000001 -0.50999999 -0.26120457
0.99000001 -0.52999997 -0.26278916
0.99000001 -0.55000001 -0.26158309
0.99000001 -0.56999999 -0.26096481
0.99000001 -0.58999997 -0.25395045
0.97000003 0.63 -0.24585156
0.97000003 0.61000001 -0.25358665
0.97000003 0.58999997 -0.25352091
0.97000003 0.56999999 -0.25281435
0.97000003 0.55000001 -0.25172126
0.97000003 0.52999997 -0.25260836
0.97000003 0.50999999 -0.25395659
0.97000003 0.49000001 -0.24857575
0.97000003 0.47 -0.25032589
0.97000003 0.44999999 -0.24987349
0.97000003 0.43000001 -0.2477046
0.97000003 0.38999999 -0.19886073
0.97000003 0.37 -0.24453753
0.97000003 0.34999999 -0.24626885
0.97000003 0.33000001 -0.24992977
0.97000003 0.31 -0.25068533
0.97000003 0.28999999 -0.25138691
0.97000003 0.27000001 -0.25102079
0.97000003 0.25 -0.2487392
0.97000003 0.23 -0.25221092
0.97000003 0.20999999 -0.2515392
0.97000003 0.19 -0.25650674
0.97000003 0.17 -0.25417939
0.97000003 0.15000001 -0.25961721
0.97000003 0.13 -0.25672105
0.97000003 0.11 -0.2613906
0.97000003 0.090000004 -0.26016805
0.97000003 0.07 -0.26050678
0.97000003 0.050000001 -0.2598553
0.97000003 0.029999999 -0.25967097
0.97000003 0.0099999998 -0.26106405
0.97000003 -0.0099999998 -0.25713155
0.97000003 -0.029999999 -0.26026264
0.97000003 -0.050000001 -0.25998577
0.97000003 -0.07 -0.25992349
0.97000003 -0.090000004 -0.26359159
0.97000003 -0.11 -0.25882927
0.97000003 -0.13 -0.25994188
0.97000003 -0.15000001 -0.26181182
0.97000003 -0.17 -0.26074269
0.97000003 -0.19 -0.26065677
0.97000003 -0.20999999 -0.26115641
0.97000003 -0.23 -0.26417559
0.97000003 -0.25 -0.26144823
0.97000003 -0.27000001 -0.26181802
0.97000003 -0.28999999 -0.26116663
0.97000003 -0.31 -0.26064569
0.97000003 -0.33000001 -0.25895795
0.97000003 -0.34999999 -0.25890809
0.97000003 -0.37 -0.25860685
0.97000003 -0.38999999 -0.2581405
0.97000003 -0.41 -0.25873539
0.97000003 -0.43000001 -0.25864831
0.97000003 -0.44999999 -0.25807074
0.97000003 -0.47 -0.2622391
0.97000003 -0.49000001 -0.25844848
0.97000003 -0.50999999 -0.26154962
0.97000003 -0.52999997 -0.2607187
0.97000003 -0.55000001 -0.26094279
0.97000003 -0.56999999 -0.25922528
0.97000003 -0.58999997 -0.2586903
0.94999999 0.63 -0.24852026
0.94999999 0.61000001 -0.24853244
0.94999999 0.58999997 -0.24987841
0.94999999 0.56999999 -0.25250402
0.94999999 0.55000001 -0.25223538
0.94999999 0.52999997 -0.25324482
0.94999999 0.50999999 -0.25234252
0.94999999 0.49000001 -0.25115967
0.94999999 0.47 -0.25113788
0.94999999 0.44999999 -0.24899411
0.94999999 0.43000001 -0.24826324
0.94999999 0.38999999 -0.20217653
0.94999999 0.37 -0.24765693
0.94999999 0.34999999 -0.24610032
0.94999999 0.33000001 -0.25009808
0.94999999 0.31 -0.2500163
0.94999999 0.28999999 -0.25326613
0.94999999 0.27000001 -0.25304243
0.94999999 0.25 -0.25375411
0.94999999 0.23 -0.2547949
0.94999999 0.20999999 -0.25894758
0.94999999 0.19 -0.25623798
0.94999999 0.17 -0.25740442
0.94999999 0.15000001 -0.26107255
0.94999999 0.13 -0.26049933
0.94999999 0.11 -0.2619164
0.94999999 0.090000004 -0.26229823
0.94999999 0.07 -0.26314974
0.94999999 0.050000001 -0.26428905
0.94999999 0.029999999 -0.26229668
0.94999999 0.0099999998 -0.26380163
0.94999999 -0.0099999998 -0.26225072
0.94999999 -0.029999999 -0.26263487
0.94999999 -0.050000001 -0.26311749
0.94999999 -0.07 -0.26233014
0.94999999 -0.090000004 -0.2635155
0.94999999 -0.11 -0.26281139
0.94999999 -0.13 -0.2622346
0.94999999 -0.15000001 -0.26801407
0.94999999 -0.17 -0.2640816
0.94999999 -0.19 -0.26259944
0.94999999 -0.20999999 -0.26191497
0.94999999 -0.23 -0.26388532
0.94999999 -0.25 -0.26358995
0.94999999 -0.27000001 -0.26392624
0.94999999 -0.28999999 -0.26090837
0.94999999 -0.31 -0.26032868
0.94999999 -0.33000001 -0.25939521
0.94999999 -0.34999999 -0.2583732
0.94999999 -0.37 -0.25704783
0.94999999 -0.38999999 -0.26089394
0.94999999 -0.41 -0.25974101
0.94999999 -0.43000001 -0.25790662
0.94999999 -0.44999999 -0.26049402
0.94999999 -0.47 -0.26335207
0.94999999 -0.49000001 -0.26460257
0.94999999 -0.50999999 -0.26308227
0.94999999 -0.52999997 -0.25988406
0.94999999 -0.55000001 -0.26557285
0.94999999 -0.56999999 -0.26082051
0.94999999 -0.58999997 -0.2607953
0.93000001 0.63 -0.25225121
0.93000001 0.61000001 -0.2533825
0.93000001 0.58999997 -0.25138491
0.93000001 0.56999999 -0.25085297
0.93000001 0.55000001 -0.2521539
0.93000001 0.52999997 -0.25052074
0.93000001 0.50999999 -0.25064275
0.93000001 0.49000001 -0.25268349
0.93000001 0.47 -0.25009784
0.93000001 0.44999999 -0.24780278
0.93000001 0.43000001 -0.24936745
0.93000001 0.37 -0.24679756
0.93000001 0.34999999 -0.24797675
0.93000001 0.33000001 -0.24923326
0.93000001 0.31 -0.25264969
0.93000001 0.28999999 -0.25311616
0.93000001 0.27000001 -0.25422952
0.93000001 0.25 -0.25335741
0.93000001 0.23 -0.25628948
0.93000001 0.20999999 -0.2559692
0.93000001 0.19 -0.25858057
0.93000001 0.17 -0.25920376
0.93000001 0.15000001 -0.26094177
0.93000001 0.13 -0.26108703
0.93000001 -0.11 -0.26275897
0.93000001 -0.15000001 -0.26292908
0.93000001 -0.20999999 -0.26410589
0.93000001 -0.23 -0.26296985
0.93000001 -0.25 -0.26382181
0.93000001 -0.27000001 -0.26303437
0.93000001 -0.28999999 -0.26047158
0.93000001 -0.31 -0.2609635
0.93000001 -0.33000001 -0.25997883
0.93000001 -0.34999999 -0.25955787
0.93000001 -0.37 -0.26100609
0.93000001 -0.38999999 -0.25520679
0.93000001 -0.41 -0.25939813
0.93000001 -0.43000001 -0.25718477
0.93000001 -0.44999999 -0.25903514
0.93000001 -0.47 -0.26128149
0.93000001 -0.49000001 -0.26030746
0.93000001 -0.50999999 -0.25878483
0.93000001 -0.52999997 -0.26260385
0.93000001 -0.55000001 -0.26529825
0.93000001 -0.56999999 -0.25893477
0.93000001 -0.58999997 -0.26169744
0.91000003 0.63 -0.24786791
0.91000003 0.61000001 -0.2507683
0.91000003 0.58999997 -0.24899971
0.91000003 0.56999999 -0.2527774
0.91000003 0.55000001 -0.25117111
0.91000003 0.52999997 -0.24900058
0.91000003 0.50999999 -0.25043651
0.91000003 0.49000001 -0.25150207
0.91000003 0.47 -0.25087613
0.91000003 0.44999999 -0.24690007
0.91000003 0.43000001 -0.24659903
0.91000003 0.37 -0.24510516
0.91000003 0.34999999 -0.24630071
0.91000003 0.33000001 -0.25089884
0.91000003 0.31 -0.25234747
0.91000003 0.28999999 -0.25418168
0.91000003 0.27000001 -0.25632718
0.91000003 0.25 -0.2570115
0.91000003 -0.31 -0.26065144
0.91000003 -0.33000001 -0.25774774
0.91000003 -0.34999999 -0.25965312
0.91000003 -0.37 -0.25876597
0.91000003 -0.38999999 -0.25671303
0.91000003 -0.41 -0.25899652
0.91000003 -0.44999999 -0.26078364
0.91000003 -0.47 -0.25826627
0.91000003 -0.49000001 -0.25947818
0.91000003 -0.50999999 -0.2590822
0.91000003 -0.52999997 -0.26090673
0.91000003 -0.56999999 -0.25762102
0.88999999 0.63 -0.25323939
0.88999999 0.61000001 -0.250871
0.88999999 0.58999997 -0.24909082
0.88999999 0.55000001 -0.24937019
0.88999999 0.49000001 -0.24982497
0.88999999 0.47 -0.25229728
0.88999999 0.44999999 -0.2420679
0.88999999 0.43000001 -0.22076774
0.88999999 0.37 -0.24389692
0.88999999 0.34999999 -0.24882853
0.88999999 0.33000001 -0.25030896
0.88999999 0.31 -0.25036308
0.88999999 -0.47 -0.25667578
0.87 0.47 -0.24747828
0.87 0.44999999 -0.23815712
0.87 0.43000001 -0.23981056
0.87 0.41 -0.2029936
0.87 0.38999999 -0.23224895
0.87 0.37 -0.23975892
0.87 0.34999999 -0.24465586
0.85000002 0.47 -0.24372973
0.85000002 0.44999999 -0.24230087
0.85000002 0.43000001 -0.23746681
0.85000002 0.41 -0.22695759
0.85000002 0.38999999 -0.22878413
0.85000002 0.37 -0.23425628
0.85000002 0.34999999 -0.24244075
0.85000002 0.33000001 -0.24412112
0.82999998 0.47 -0.23815894
0.82999998 0.44999999 -0.23421337
0.82999998 0.43000001 -0.23093745
0.82999998 0.41 -0.22767736
0.82999998 0.38999999 -0.22534998
0.82999998 0.37 -0.23485862
0.82999998 0.34999999 -0.2387556
0.81 0.44999999 -0.23325419
0.81 0.43000001 -0.23201524
0.81 0.41 -0.23076585
0.81 0.38999999 -0.23603117
0.81 0.37 -0.23535581
