# .PCD v0.7 - Point Cloud Data file format
VERSION 0.7
FIELDS x y z
SIZE 4 4 4
TYPE F F F
COUNT 1 1 1
WIDTH 1471
HEIGHT 1
VIEWPOINT 0 0 0 1 0 0 0
POINTS 1471
DATA ascii
2.0117457 -0.71235621 0.21119943
2.0054777 -0.66811085 0.21204245
2.0121164 -0.63455415 0.21454081
2.015455 -0.62066364 0.21245708
2.0141962 -0.60832 0.21201873
2.0149395 -0.57994682 0.21193103
2.0185425 -0.56862992 0.21717158
2.0195503 -0.55321401 0.22058342
2.0160084 -0.48964891 0.21844901
2.0165424 -0.47533846 0.2168739
2.0116982 -0.46505281 0.21167415
2.0107765 -0.4417555 0.21522051
2.0196037 -0.40058416 0.20789939
2.0188675 -0.38616467 0.21290916
2.0189977 -0.37614813 0.21615987
2.0172355 -0.25541869 0.21390808
2.0181234 -0.24397652 0.21331581
2.0225921 -0.23145252 0.21251921
2.0160072 -0.16691068 0.21956603
2.0183969 -0.15330939 0.21400537
2.0182421 -0.14325196 0.2134009
2.0087671 -0.072726965 0.21623969
2.0112231 -0.062323969 0.21499391
2.0140142 -0.050160281 0.21357822
2.0158112 -0.023609055 0.21824913
2.0181808 -0.011971803 0.22244462
2.020134 0.0088251131 0.22159372
2.0177202 0.027355434 0.22256425
2.0120134 0.04536622 0.22046211
2.0112541 0.063135736 0.21484782
2.0151277 0.12122897 0.22475617
2.0182617 0.13334598 0.2184352
2.0124848 0.26791111 0.22217879
2.0148337 0.27874833 0.22099708
2.0178418 0.29521957 0.22065738
2.0179977 0.31714946 0.22415583
2.0186357 0.32982767 0.22299892
2.0177937 0.34701955 0.22537412
2.0258915 0.44732663 0.21740012
2.0258915 0.45084387 0.21740012
2.0182624 0.47506726 0.22318579
2.0171218 0.52177399 0.22571
2.0247338 0.6015147 0.21444534
2.0122097 -0.73990977 0.20270303
2.0084391 -0.72825116 0.20267183
2.0093005 -0.71389318 0.20616364
1.9995401 -0.6712538 0.20175849
2.0035262 -0.45874733 0.20716265
2.0064044 -0.4417555 0.2076478
2.0132408 -0.40283701 0.19862293
2.0128634 -0.39166039 0.19723544
2.0102193 -0.24314205 0.20175572
2.01176 -0.14788125 0.20359044
2.012419 -0.14320929 0.20456539
2.00685 0.070595056 0.2074195
1.8439854 0.92511338 -0.087161034
1.8356164 -1.1188244 -0.10265671
1.8356568 -1.1083227 -0.10268689
1.8416655 -1.0453433 -0.10717884
1.8416655 -1.0382996 -0.10717884
1.8335361 0.76392776 -0.09675999
1.8336543 0.87382865 -0.094680578
1.8372045 0.89743841 -0.10197689
1.8387074 0.90575486 -0.092803255
1.8437947 0.94659054 -0.099420041
1.8343345 0.98890996 -0.084377572
1.8343345 0.99414814 -0.084377572
1.8454977 1.0530404 -0.098041482
1.8335392 -1.1402971 -0.12075326
1.8284365 -1.1238774 -0.11315111
1.8292924 -1.107464 -0.11147564
1.8242345 -1.0900027 -0.11310707
1.8243357 -1.0716938 -0.11769465
1.8286343 -1.0484284 -0.11394905
1.8307334 -1.0344493 -0.11443213
1.8336651 -1.0179585 -0.11659436
1.82296 -0.97493553 -0.11199423
1.8271968 -0.96560752 -0.11102065
1.8271223 -0.9470253 -0.11806788
1.8300724 0.74760205 -0.10938355
1.8280296 0.87425673 -0.10479724
1.8269286 0.89336568 -0.10440398
1.8360223 0.96334684 -0.10895338
1.8360038 0.97444719 -0.10948516
1.8149114 -1.1528296 -0.12185154
1.8152177 -1.1422019 -0.12273761
1.8224399 -1.1238806 -0.12252025
1.8188622 -1.1089386 -0.12717476
1.812974 -1.0936866 -0.12181846
1.8300964 -1.067601 -0.1247167
1.8254108 -1.0599235 -0.12333223
1.8218755 -1.0296463 -0.12062262
1.8224297 -1.0159647 -0.1210459
1.8209881 -1.0006176 -0.12389331
1.816965 -0.98075819 -0.12233672
1.8121911 -1.1025159 -0.1399297
2.0519736 0.17794779 0.22807646
2.0509236 0.18729635 0.22859058
2.0467975 0.20398556 0.23061052
2.0553372 0.3237564 0.22840214
2.0554497 0.32910192 0.22834717
2.0551248 0.44818839 0.22653386
2.0546744 0.45719737 0.23313569
2.053057 0.47605297 0.23077071
2.0548162 0.48821363 0.22799966
2.0490479 0.53882062 0.22950873
2.0490479 0.54413158 0.22950873
2.0531983 0.5858525 0.22944732
2.0389192 -0.6187399 0.21836539
2.0400999 -0.60799015 0.21896023
2.0466831 -0.57818377 0.21291341
2.0377579 -0.56718856 0.21855399
2.0374944 -0.55418217 0.21749745
2.0322683 -0.38508105 0.22206965
2.0321305 -0.376598 0.21820682
2.0435553 -0.23877269 0.21249533
2.0450757 -0.23091881 0.21512859
2.0460193 -0.19823989 0.21126349
2.0460193 -0.19468838 0.21126349
2.0405686 -0.16580021 0.21398839
2.040307 -0.15692508 0.21411924
2.0396965 -0.024090275 0.22231133
2.0458355 -0.0084609017 0.22208741
2.0466609 0.005959088 0.2178742
2.0337815 0.030609015 0.22131628
2.0423543 0.050262611 0.2144158
2.0445423 0.06416025 0.21628846
2.0513365 0.1053649 0.22247276
2.0376832 0.11518226 0.22919908
2.0385203 0.16866724 0.22633688
2.0378518 0.18040249 0.22911608
2.0393181 0.21349876 0.22773948
2.0380349 0.22116439 0.22510049
2.0406077 0.28532729 0.21988973
2.038238 0.29727459 0.22186039
2.04809 0.31523532 0.22429357
2.039295 0.33555162 0.22600457
2.0444295 0.34886822 0.21966378
2.0487487 0.37061322 0.22424045
2.0486395 0.37993982 0.22380142
2.0420585 0.40507299 0.21640247
2.0415082 0.42462653 0.2253494
2.0447743 0.44109613 0.22317758
2.0445445 0.46058881 0.22302417
2.0421758 0.47700903 0.22472106
2.0440962 0.48961607 0.22161934
2.0472775 0.53882062 0.22644201
2.0462468 0.54712528 0.22432362
2.0452344 0.58402938 0.22154687
2.0442009 0.60359049 0.21725652
2.0385816 0.61858785 0.22757962
2.029609 -0.7605868 0.20763996
2.0298882 -0.75081813 0.20157373
2.0321693 -0.72710401 0.20357443
2.031522 -0.71119732 0.20865344
2.0301695 -0.63096386 0.21131051
2.0314665 -0.6209746 0.21291402
2.0344076 -0.60734147 0.21115047
2.0324054 -0.58048737 0.21018334
2.0337245 -0.5750522 0.21346785
2.0343401 -0.54520053 0.21315885
2.025501 -0.51020718 0.20972423
2.0270391 -0.49957857 0.21288848
2.0413492 -0.47320348 0.20567483
2.0395741 -0.46787938 0.20260052
2.0288279 -0.37311664 0.21198674
2.0298424 -0.28918803 0.20357729
2.035569 -0.2800355 0.20032941
2.030443 -0.26393574 0.20843841
2.0305912 -0.24265434 0.21504076
2.0417814 -0.22813195 0.2094232
2.0442433 -0.19468838 0.20818737
2.0339706 -0.091284268 0.20939435
2.0341942 -0.080686346 0.20928159
2.0369055 -0.063586615 0.20904894
2.0388896 -0.050752938 0.20691463
2.0351391 0.048392735 0.20979334
2.0361862 0.34544712 0.21223204
2.0402148 0.40465814 0.21020965
2.0323815 0.48769161 0.21414202
2.0302486 -0.7403118 0.19144855
2.0199926 -0.46082926 0.20068395
1.8577051 0.76850736 -0.09549734
1.8580441 0.77494395 -0.095310256
1.8574818 0.84316367 -0.095617518
1.8573307 0.84945166 -0.094346374
1.8599424 0.89214677 -0.094521798
1.8609287 0.98771155 -0.09306401
1.8667135 0.99571669 -0.090731874
1.8543264 1.0131654 -0.092583209
1.8418672 -1.0489897 -0.10732964
1.8497629 -1.0295839 -0.11235361
1.8553956 -1.0163087 -0.10985107
1.8540752 -1.0008336 -0.11172263
1.8517475 -0.98777932 -0.11471581
1.8483195 0.75196236 -0.11215323
1.8534721 0.76870102 -0.10222963
1.8532194 0.77476066 -0.10266687
1.85114 0.84355628 -0.096768714
1.8497227 0.84814215 -0.095723674
1.8557223 0.89225227 -0.10233188
1.8489063 0.90796632 -0.099471234
1.8595598 0.94898915 -0.1015182
1.8532329 0.96350938 -0.11023448
1.8469081 0.97566622 -0.11109807
1.8393749 -1.1548193 -0.12297887
1.8449907 -1.1419998 -0.11951282
1.8427711 -1.1329522 -0.11676327
1.8430502 -1.1007782 -0.11478016
1.8414695 -1.0905265 -0.12080336
1.846789 -1.072451 -0.12330383
1.8401216 -1.0571036 -0.11663844
1.8463924 -1.0144203 -0.12058494
1.8436215 -0.99895841 -0.12198582
1.843389 -0.98458898 -0.11854349
1.8429508 -0.96070337 -0.12305209
1.8440584 -0.95024359 -0.12653325
1.8404005 0.74721855 -0.11570296
1.8323673 -1.1589127 -0.12644972
1.8316993 -1.1478853 -0.12593992
1.8337034 -1.0081568 -0.12746921
1.834815 -1.0008311 -0.131843
1.8314195 -0.98969853 -0.12792513
2.0648019 -0.75081718 0.22179629
2.0709536 -0.61892134 0.21878478
2.0708036 -0.6081298 0.21885821
2.060107 -0.38443491 0.22541368
2.068403 -0.34449261 0.22003336
2.068403 -0.33912769 0.22003336
2.064352 -0.07608746 0.22201663
2.0609426 -0.06266883 0.22544448
2.0592437 -0.051545024 0.22583537
2.057364 -0.02068123 0.22741255
2.063051 -0.010547263 0.22633421
2.0690722 0.00064936181 0.22169232
2.0617862 0.11826964 0.2232727
2.068538 0.13657671 0.21996738
2.0639019 0.17549162 0.22223698
2.0630414 0.21133648 0.22774658
2.0625327 0.21795233 0.22686499
2.0569134 0.33646089 0.22763215
2.0643435 0.35025245 0.22400236
2.0607789 0.3691853 0.22574383
2.0614169 0.38712239 0.22543214
2.0690782 0.41031411 0.21970291
2.0625377 0.42467242 0.22578305
2.0672626 0.44172141 0.22834298
2.0731671 0.45116046 0.22961813
2.0706272 0.48315144 0.22688584
2.0722089 0.49171314 0.22512522
2.0718305 0.5718683 0.22034492
2.0713239 0.57887894 0.22059233
2.0566599 0.60645443 0.22775595
2.0565758 0.61531025 0.22779725
2.0584109 -0.78647453 0.20772685
2.0484951 -0.75973642 0.21355125
2.0537174 -0.74571621 0.21493664
2.0556519 -0.73288274 0.20644794
2.0683591 -0.61791229 0.2150829
2.0628135 -0.60332114 0.21106313
2.0571616 -0.58635414 0.21224065
2.0613894 -0.56618017 0.21288499
2.0599039 -0.55095178 0.20831285
2.0572197 -0.47984138 0.20566414
2.0516195 -0.43925613 0.20846382
2.0486922 -0.39731169 0.21389313
2.054523 -0.38671255 0.21842939
2.0517468 -0.37459797 0.21078418
2.0666146 -0.34449261 0.21693552
2.0666146 -0.33912769 0.21693552
2.0623722 -0.28053945 0.20308831
2.0668049 -0.24003439 0.21126607
2.0593708 -0.22367635 0.21725234
2.058778 -0.18143849 0.21086262
2.0595152 -0.17138007 0.21155082
2.0588388 -0.15351219 0.2113765
2.058105 -0.14211492 0.21119699
2.0545273 -0.092061527 0.20900004
2.0570774 -0.079888545 0.21202248
2.053504 -0.063417241 0.21546784
2.051739 -0.049392726 0.21577746
2.0530632 -0.021860899 0.2209633
2.0566761 -0.010020168 0.22182137
2.0644226 0.0070915692 0.21323955
2.0554066 0.030927129 0.21452287
2.0549903 0.045036744 0.21184732
2.0632617 0.054304801 0.21062861
2.0598769 0.16110532 0.21826534
2.061368 0.16828953 0.2195148
2.0558779 0.29762328 0.22221385
2.0609369 0.35190099 0.2197267
2.0562122 0.39200017 0.21660587
2.0613086 0.40347549 0.21557902
2.0597918 0.42003959 0.21830522
2.0554283 0.43978551 0.22243492
2.0496526 0.45539948 0.21605618
2.0688629 0.57357538 0.21583019
2.0663984 0.57874376 0.21306135
2.051465 0.60813284 0.21944541
2.052685 0.61697781 0.22180848
2.0435393 -0.76044708 0.20496796
2.0456727 -0.74570137 0.20058671
2.052191 -0.73080045 0.20220381
2.0505097 -0.71734202 0.20504156
2.053647 -0.59929675 0.20107612
2.044862 -0.58657151 0.20688419
2.0532007 -0.52997971 0.19770269
2.0458212 -0.50989628 0.20342052
2.0548525 -0.4780001 0.20206371
2.0482347 -0.46421185 0.19422631
2.0484133 -0.43676275 0.2029105
2.0471663 -0.4303512 0.20075089
2.0505097 -0.37170959 0.20504156
2.045614 -0.27943543 0.2045197
2.0458348 -0.26871634 0.19144465
2.0516288 -0.092050724 0.2044798
2.0520318 -0.081371211 0.2042775
2.0453622 -0.06213494 0.2076256
2.0449741 -0.048218451 0.20682822
2.0453622 0.050396144 0.2076256
2.0353675 -0.74587488 0.18881442
2.0436049 -0.46127677 0.18858282
2.049485 -0.27405608 0.182124
2.049613 -0.2670134 0.18248901
1.893623 0.87716413 -0.075185925
1.893623 0.8825196 -0.075185925
1.877805 0.8017475 -0.081333935
1.8814596 0.81556422 -0.084503293
1.8894771 0.87476677 -0.082548283
1.8876233 0.8857674 -0.085347176
1.8839819 0.94461834 -0.090134375
1.8861918 0.96777582 -0.08880721
1.8847145 0.98014361 -0.087479465
1.8883077 1.0020097 -0.091491945
1.8903494 1.0138148 -0.092521586
1.8745522 0.76773125 -0.099574171
1.874789 0.77911949 -0.098807111
1.8748434 0.80268162 -0.091413185
1.8797495 0.81545115 -0.095214792
1.8711365 0.83772969 -0.098671712
1.8749106 0.85578346 -0.098895781
1.8728107 0.90913355 -0.10043301
1.8769752 0.94546646 -0.098828852
1.8785058 0.96472561 -0.10019403
1.875966 0.98085672 -0.097468562
1.875595 0.99172968 -0.089911163
1.887596 1.0155649 -0.097124107
1.8753079 1.0566403 -0.10357435
1.8739424 1.0652676 -0.10477303
1.8727491 -1.1592941 -0.11947268
1.8718848 -1.1466963 -0.12089853
1.8718818 -1.122851 -0.12034104
1.8708189 -1.1067402 -0.11833281
1.8723233 -1.0895045 -0.11679563
1.8709313 -1.0713056 -0.11871029
1.8691995 -1.0507469 -0.11772013
1.8715891 -1.0367619 -0.11429278
1.8757515 -1.0194758 -0.11197232
1.8712215 -1.0026349 -0.11863525
1.8703836 0.76255262 -0.10743694
1.867007 0.83661526 -0.10572241
1.8661959 0.90950447 -0.10888301
1.8681051 0.92044175 -0.10488355
1.8707401 0.95213884 -0.10681968
1.8707284 0.96565932 -0.10988957
1.8696015 0.97948152 -0.11302394
1.8714697 1.0564748 -0.10955591
1.8712671 1.0652676 -0.10940676
1.8650961 -1.1722701 -0.13134427
1.8648787 -1.1614327 -0.12827931
1.8604879 -1.1049621 -0.12522681
1.8593386 -1.0899433 -0.12701663
1.8606195 -1.0730355 -0.12134829
1.8656607 -0.99225175 -0.12511685
1.8568243 -0.97573674 -0.1229217
1.8604381 -0.96434599 -0.13037629
1.8611398 0.75266325 -0.12394696
2.0875206 -0.63393807 0.23064618
2.0883119 -0.62700164 0.23026691
2.0947583 -0.00295625 0.22318287
2.0947583 0.00065589108 0.22318287
2.0911384 0.069094092 0.22891223
2.0911384 0.072696202 0.22891223
2.0926337 0.17017855 0.2258027
2.0876713 0.44292369 0.23057395
2.0879729 0.45018461 0.23042937
2.0945604 0.51470381 0.22477703
2.0936291 0.52591789 0.22372642
2.0805542 -0.76046485 0.21807998
2.0816784 -0.75276196 0.21952732
2.0726748 -0.72488117 0.21993241
2.0741696 -0.71603507 0.22185509
2.0806592 -0.63316399 0.22401197
2.0793612 -0.62182575 0.22318077
2.0769534 -0.53514785 0.21744357
2.0717788 -0.47408009 0.21838076
2.0867679 -0.43985197 0.21104303
2.0857298 -0.42899022 0.20954543
2.0844989 -0.3973071 0.21816278
2.0816822 -0.38815174 0.22003448
2.0867469 -0.29245025 0.21225686
2.0846052 -0.28440666 0.2100976
2.0843816 -0.24340908 0.21154305
2.0850587 -0.23372677 0.21388255
2.0822442 -0.20278327 0.21525748
2.0805104 -0.19000988 0.21610445
2.0836573 -0.17312422 0.21389925
2.0841525 -0.16175929 0.20831348
2.0790932 -0.083866216 0.21479996
2.0823522 -0.020922078 0.22119424
2.0851717 -0.0029458129 0.2218283
2.0849407 0.007865442 0.2165629
2.0870812 0.023231775 0.20988619
2.0842073 0.06344679 0.21985196
2.0815253 0.078624785 0.21970893
2.0767303 0.090454042 0.21595682
2.0788269 0.11920924 0.21892165
2.0839329 0.13213095 0.21643247
2.0827897 0.15511596 0.21736148
2.0806053 0.16970527 0.22128697
2.0798557 0.18502708 0.22174573
2.0796463 0.35793832 0.22250769
2.0798268 0.37054056 0.22242011
2.0789702 0.38652897 0.22283597
2.0839205 0.43549559 0.22641057
2.0783806 0.4999114 0.21914911
2.0875793 0.51393175 0.21842368
2.0859621 0.52559805 0.22044723
2.0765078 -0.76508188 0.21207178
2.0730255 -0.74068677 0.20679039
2.0716636 -0.73013592 0.20571257
2.0658021 -0.71505457 0.20787251
2.0646124 -0.68610954 0.2019684
2.0668542 -0.67333359 0.20585099
2.0690958 -0.66100603 0.20973384
2.0834708 -0.56090218 0.20463286
2.0726905 -0.54647201 0.20640475
2.0702467 -0.53067183 0.20716873
2.0691648 -0.51315165 0.20170322
2.0628202 -0.50095159 0.20286435
2.0696828 -0.47250718 0.20775074
2.0715568 -0.43484721 0.19849674
2.0721166 -0.42957264 0.19821683
2.076138 -0.29296568 0.20224436
2.0780382 -0.28335071 0.20476845
2.0816767 -0.24277022 0.2075253
2.0681279 -0.20804386 0.20926854
2.0774972 -0.18998013 0.21158536
2.0774069 -0.1737839 0.21162978
2.082123 -0.15632632 0.20529823
2.073813 -0.092817187 0.20740438
2.0746212 -0.086326934 0.20980448
2.069093 0.010506242 0.21272895
2.0704894 0.021469614 0.20904765
2.0785306 0.051059838 0.20907556
2.0699902 0.05621133 0.21328297
2.0720711 0.08101242 0.2085124
2.0731928 0.095799938 0.21170512
2.0780816 0.2902863 0.211298
2.0608048 -0.71225804 0.19987337
2.0661521 -0.68521535 0.18993606
2.0655982 -0.6763795 0.1914272
2.0634904 -0.54464436 0.19852515
2.0603552 -0.52524447 0.19666688
2.061028 -0.5129751 0.19909403
2.0610285 -0.50095159 0.19976108
2.0657182 -0.43454409 0.19138379
2.0667491 -0.43033737 0.19206978
2.0646067 -0.2938292 0.19595875
1.9016173 0.80585098 -0.080838695
1.9016173 0.81123096 -0.080838695
1.9124396 0.9073205 -0.084093869
1.9134656 0.93309653 -0.084816806
1.9007975 1.024158 -0.080258973
1.9087261 1.0367222 -0.081469961
1.900159 0.77609634 -0.097363859
1.89803 0.80226445 -0.087051779
1.8995289 0.81671888 -0.088122718
1.901384 0.83425111 -0.098242283
1.9093256 0.89629751 -0.088487357
1.9078103 0.90562588 -0.091304466
1.907114 0.92918354 -0.092540011
1.906497 0.94584632 -0.094477095
1.8982997 0.95879656 -0.093513019
1.8955303 1.0206789 -0.087315165
1.9002501 1.0345145 -0.089956678
1.910798 1.0911435 -0.093936898
1.8977064 -1.0672642 -0.1166115
1.890718 -1.051553 -0.11180701
1.8879502 -1.039094 -0.11225997
1.8861159 -1.0103981 -0.11368691
1.8974597 0.77609634 -0.10203888
1.8932559 0.81951565 -0.11373667
1.8953917 0.83485955 -0.10827705
1.8867719 1.0377195 -0.11121757
1.8918815 1.0556877 -0.11170059
1.8947606 1.065763 -0.1067139
1.876911 -1.1724521 -0.12463043
1.8777806 -1.1658466 -0.11862415
1.8868252 -1.1430129 -0.12186749
1.8899044 -1.1187084 -0.12312482
1.8908058 -1.1133007 -0.12156358
1.8886775 -1.0849342 -0.11999971
1.8900409 -1.0707546 -0.12143846
1.8782095 -1.0576351 -0.11746447
1.8950434 -1.0372341 -0.12022391
1.8843198 -1.0103981 -0.11679779
1.8786491 -0.99868613 -0.12345336
1.8912694 0.81836891 -0.11746052
1.890478 0.83240211 -0.11688104
1.8893622 1.054968 -0.11606393
1.8716534 -1.1833484 -0.14073612
1.8747342 -0.99209297 -0.1319
1.8771539 -0.9826895 -0.13370886
1.8789817 -0.96853739 -0.13954292
2.1942725 0.42085707 0.3645426
2.192281 0.50129747 0.35759342
2.1881402 0.5002166 0.3503215
2.1878462 0.5086087 0.34966254
2.1194491 0.19727467 0.23144862
2.1194491 0.20091565 0.23144862
2.1145809 0.44679642 0.23956108
2.1163247 0.4560363 0.24092948
2.1201298 0.50329131 0.23112783
2.1201298 0.50693357 0.23112783
2.1033456 -0.62307501 0.22105651
2.1107967 -0.0630707 0.21546307
2.1036437 0.0079224631 0.21890607
2.1102405 0.063115925 0.22268051
2.1133544 0.075628936 0.22309271
2.0992763 0.15995958 0.22100823
2.1099477 0.17302315 0.22334911
2.1142333 0.19030507 0.22220555
2.109236 0.20474575 0.22225949
2.0986738 0.2214409 0.22129814
2.111865 0.33922139 0.21897909
2.1043427 0.35024992 0.22373578
2.1015623 0.36774853 0.22257926
2.0989757 0.44160947 0.22782044
2.1161647 0.49534062 0.22554596
2.1183085 0.50693357 0.22797312
2.1013131 0.52750158 0.2240357
2.1079602 -0.72550845 0.21279956
2.1067119 -0.71628505 0.21138701
2.0938332 -0.66985613 0.20691428
2.0963304 -0.65673673 0.20812421
2.1006253 -0.62126184 0.21634507
2.089144 -0.54932654 0.21217404
2.0922706 -0.53630483 0.21437413
2.0922165 -0.47286096 0.20918009
2.0888231 -0.45861036 0.20802802
2.0981395 -0.43415374 0.2155395
2.0950327 -0.42803127 0.21253346
2.0897791 -0.35390657 0.20755889
2.0970051 -0.24155392 0.2127417
2.1020079 -0.22447979 0.20694828
2.1027935 -0.20818628 0.20781544
2.1025097 -0.18826845 0.21140905
2.0968261 -0.17043658 0.2117645
2.0980327 -0.15313123 0.20576707
2.1005666 -0.14128886 0.20024395
2.0958767 -0.075416692 0.21262035
2.1000719 -0.066198684 0.21317238
2.1031604 0.0097489953 0.21411097
2.0988727 0.023646371 0.20647632
2.087975 0.045860682 0.20643426
2.1014929 0.10006947 0.20518117
2.10408 0.11668563 0.2106472
2.1080689 0.19454393 0.21173848
2.0983279 0.2065625 0.21611618
2.096864 0.2214409 0.21816322
2.0987444 0.26596195 0.21208762
2.1001697 0.27269813 0.21455607
2.1042304 0.33868891 0.21258926
2.0959456 0.3490777 0.21678527
2.0936291 0.36741579 0.21972694
2.1058612 0.38608432 0.21381415
2.108073 0.3974379 0.21274504
2.105206 0.6068362 0.2114462
2.1005082 0.61920202 0.21439202
2.086834 -0.80100656 0.20095833
2.0875144 -0.67968321 0.20263654
2.0920074 -0.65586281 0.20041844
2.0987465 -0.57259774 0.19709142
2.0875099 -0.52785462 0.20129554
2.0870585 -0.46989954 0.20084718
2.0870585 -0.46627986 0.20084718
2.0903597 -0.14792335 0.2012319
2.0987465 -0.14128886 0.19709142
2.0841448 0.029556444 0.20430012
2.0861666 0.045860682 0.20330203
1.9308631 0.98574442 -0.070058189
1.9318002 0.99448574 -0.069060199
1.9314071 0.86377448 -0.09523987
1.9309094 0.87083125 -0.091935568
1.9226993 0.89082658 -0.091323018
1.9321643 0.91432178 -0.0896791
1.9278333 0.92541206 -0.091617316
1.9249943 0.94588304 -0.088119976
1.9270678 0.98713064 -0.076756686
1.9282559 1.0541185 -0.089698054
1.9307914 1.0837317 -0.094806768
1.9283278 1.098598 -0.093073934
1.9157357 -1.1545737 -0.10705014
1.9181157 -1.1464952 -0.1083322
1.9236099 0.87514925 -0.097495183
1.9197744 0.8852855 -0.095888719
1.9237559 0.92676675 -0.096492819
1.921216 0.96556699 -0.1003916
1.9195319 0.9776153 -0.10180832
1.9203013 1.0202528 -0.09847597
1.9221159 1.0275097 -0.095333211
1.9155877 1.0543672 -0.098871253
1.9165287 1.062078 -0.09801054
1.9243367 1.0905139 -0.10438079
1.922984 1.0992297 -0.10482927
1.911419 -1.1549407 -0.11136019
1.907391 -1.1427207 -0.11639722
1.9079273 -1.1271061 -0.12326469
1.9061553 -1.1048509 -0.12314363
1.9075283 -1.0873929 -0.12074196
1.9088376 -1.0712533 -0.11818825
1.9109665 -1.0529438 -0.12024305
1.9071542 -1.0358045 -0.12349694
1.9035473 -1.0154723 -0.12049439
1.9085569 -1.0004104 -0.12377518
1.9137174 -0.98502493 -0.12357879
1.904157 1.0377911 -0.11113112
1.9041744 1.0515952 -0.11353325
1.9191613 1.0965996 -0.11544961
1.9191613 1.1002405 -0.11544961
1.8918631 -1.1861824 -0.13573143
1.9002277 -1.1404473 -0.12736823
1.9032798 -1.1277159 -0.12923464
1.9040115 -1.1060436 -0.12679067
1.9017729 -1.0863202 -0.12642476
1.9034296 -1.0331315 -0.12636462
1.8984311 -1.0160843 -0.12418943
1.9000738 -0.99859005 -0.13161343
1.9026319 -0.98205662 -0.13607872
1.8880817 -1.1916138 -0.140981
1.88965 -1.1859083 -0.13856475
1.8929299 -0.99422252 -0.14100833
1.8946688 -0.98036522 -0.1442285
1.8914704 -0.97187722 -0.14891122
2.1982918 0.42607084 0.35910463
2.1977479 0.43548393 0.35156313
2.2029202 0.51716959 0.34952161
2.1989462 -0.76162308 0.33591676
2.2002118 -0.75236773 0.33693102
2.1967375 -0.010334883 0.33441308
2.1956332 0.00066576095 0.33290079
2.1943278 0.42822498 0.34513962
2.1933436 0.4396241 0.33911127
2.1964502 0.45142171 0.33648238
2.1909347 0.49849939 0.34259579
2.1973076 0.51347733 0.34005028
2.195503 0.57059962 0.33425862
2.195282 0.58279139 0.33472094
2.1906312 -0.77751726 0.31923738
2.1915512 -0.76616305 0.32279131
2.1915329 -0.7533145 0.322799
2.1905994 -0.021338088 0.32318217
2.1910958 -0.010334091 0.3249425
2.1910491 0.00066576095 0.32496151
2.1903117 0.44192401 0.32918382
2.1949866 0.45210844 0.32728079
2.1900363 0.57136118 0.32550696
2.1883469 0.58496118 0.3241058
2.1882651 0.59409577 0.32413912
2.1874254 -0.7776944 0.31268516
2.1858094 -0.76641828 0.31138581
2.1862614 -0.75340033 0.31316906
2.1822267 -0.43263769 0.30301464
2.1820359 -0.42576057 0.30260065
2.1822608 0.58505422 0.31286457
2.1424601 0.46631086 0.24080513
2.142308 0.47360775 0.24087523
2.1375585 0.51454413 0.24306491
2.1379006 0.52377748 0.24290724
2.1314769 0.050117709 0.22578189
2.1312499 0.059268817 0.22588883
2.1306496 0.19054456 0.23057565
2.1334505 0.20389003 0.23090871
2.1305058 0.44433632 0.23429959
2.1252801 0.46569681 0.23823573
2.1297698 0.47689021 0.23396417
2.1280465 0.4960722 0.23283966
2.1260147 0.51311123 0.23679492
2.129986 0.52951455 0.23386614
2.1365602 0.54902446 0.22985336
2.1387699 0.55873686 0.2284141
2.1262376 -0.72502887 0.2115826
2.1266663 -0.7146495 0.21335933
2.1214254 -0.55928594 0.21237263
2.1180627 -0.54815352 0.21421485
2.1168962 -0.53999799 0.21252733
2.1245801 -0.45338345 0.21558709
2.1257918 -0.4422619 0.21601926
2.1252775 -0.42820925 0.21210048
2.1223569 -0.3848711 0.21638624
2.1265359 -0.37691897 0.21397395
2.1144335 -0.12686093 0.21976176
2.1170182 -0.1164743 0.21821336
2.1199644 -0.10215614 0.21459185
2.1169214 -0.077417083 0.21817116
2.1165988 -0.066558607 0.21844071
2.1180255 -0.023095138 0.21198367
2.1254654 -0.01033385 0.21043295
2.1223376 0.0079770898 0.21315292
2.124681 0.02790649 0.20994045
2.1268036 0.045697361 0.21471249
2.1274667 0.060466766 0.22094753
2.1225555 0.08671952 0.21182989
2.1230745 0.098372005 0.21022922
2.1213689 0.11782841 0.21037446
2.1182706 0.16136354 0.21590817
2.1231084 0.16998622 0.22167616
2.1282845 0.18003622 0.2232528
2.1204169 0.2090911 0.2189198
2.1236768 0.22310746 0.21777201
2.132355 0.25021562 0.2193033
2.1273661 0.26123556 0.21774954
2.1291523 0.27730709 0.21703763
2.1206081 0.30225396 0.21884505
2.119849 0.31439611 0.2195375
2.1255286 0.32661113 0.21647942
2.1271129 0.3726877 0.21572338
2.1245182 0.38630813 0.21156302
2.1275275 0.39714503 0.2094418
2.1176641 0.44024265 0.22202352
2.130178 0.4820953 0.21889
2.127943 0.48995358 0.21734847
2.118592 0.5161134 0.22783898
2.1328192 0.55285156 0.22110713
2.1337261 0.5586096 0.22067803
2.120923 -0.71230543 0.20450298
2.1174483 -0.58644152 0.19398482
2.1144702 -0.56688589 0.19815947
2.1123607 -0.54837596 0.21067242
2.109463 -0.53214991 0.20221566
2.108531 -0.51581806 0.19785188
2.1079867 -0.50352448 0.19659613
2.1117525 -0.45974079 0.20253555
2.1174643 -0.44576344 0.20617847
2.1133986 -0.42360106 0.20465173
2.1120782 -0.40881309 0.20068292
2.1103208 -0.38216889 0.20963879
2.1144485 -0.24126443 0.20966326
2.1230023 -0.22462359 0.20390455
2.1218293 -0.20834856 0.20447277
2.1229682 -0.19189179 0.20554501
2.1151588 -0.16571468 0.20526871
2.1147306 -0.15288392 0.20547663
2.1134868 -0.13668109 0.20319417
2.1105785 -0.11584139 0.20721872
2.1130519 -0.10093728 0.20165507
2.1155884 -0.023704341 0.20776242
2.1161976 -0.017612329 0.20881772
2.1105554 0.015240831 0.21154508
2.1145926 0.027726678 0.20500447
2.1212659 0.042237576 0.20230488
2.1186061 0.099552199 0.20422052
2.1173139 0.11043352 0.20625132
2.1123509 0.13752918 0.20865536
2.1152949 0.20526139 0.20925406
2.1114619 0.27961048 0.19976588
2.1152637 0.29898077 0.2011511
2.1098373 0.31098518 0.20936355
2.1076024 0.40505943 0.20826337
2.1146958 -0.58460677 0.18921743
2.1041284 -0.52628177 0.19308063
2.1048949 -0.51360726 0.19179724
2.1052461 -0.50352448 0.1918494
2.1016243 -0.46473646 0.18957652
2.1090629 -0.10915459 0.18996106
2.1090257 -0.10183138 0.18997939
2.094171 -0.2666536 0.16266809
2.0914242 -0.2703155 0.15791051
2.0914242 -0.2666536 0.15791051
1.9477556 0.99454153 -0.073424257
1.9506472 1.1038803 -0.086914957
1.9471068 0.82685161 -0.10404664
1.9471068 0.83052349 -0.10404664
1.9433914 0.8609159 -0.096981965
1.9413276 0.87188989 -0.091414206
1.9372879 0.88656807 -0.095665351
1.9375931 0.93071699 -0.091025636
1.9428388 0.94315469 -0.092823952
1.9400767 0.95701265 -0.090223983
1.939847 1.0025942 -0.093620904
1.9349611 1.0168179 -0.094996363
1.9417294 1.0343775 -0.097514257
1.948025 1.0471675 -0.10245643
1.9371622 1.0724341 -0.09706381
1.9379098 1.0826516 -0.096476883
1.9458236 1.10311 -0.095120363
1.9381763 -1.1604748 -0.11563931
1.9364949 -1.1514015 -0.11892651
1.9341997 -1.0851585 -0.1184022
1.9298278 -1.0721756 -0.11664121
1.9244528 -1.0609345 -0.1147847
1.9273108 -1.0260974 -0.11683419
1.9299412 -1.0145458 -0.11458624
1.9308416 -1.0051312 -0.11488529
1.941069 0.81848812 -0.10575446
1.9452705 0.83052349 -0.10722704
1.9394301 0.86121094 -0.10534308
1.9355445 0.87432086 -0.11013573
1.9332901 0.88442624 -0.11127816
1.9454757 1.0050547 -0.10737155
1.9328177 1.0138532 -0.10511759
1.9301102 1.0357721 -0.10098599
1.9326596 1.074918 -0.10457029
1.9255416 1.084265 -0.10918474
1.9268854 -1.1416343 -0.1262372
1.9229859 -1.1236824 -0.12965862
1.9262884 -1.10752 -0.12754922
1.9246315 -1.0897439 -0.12027464
1.9215589 -1.070299 -0.11879708
1.9274532 -1.0537144 -0.12622969
1.9249252 -1.0356823 -0.12646572
1.9228427 -1.0184968 -0.12332256
1.9233251 -0.99945724 -0.12208059
1.9207929 -0.98513132 -0.11662371
1.9323145 0.87502551 -0.12266732
1.9334352 0.88612473 -0.12122596
1.9208949 1.088558 -0.11669706
2.2130294 -0.752123 0.34553143
2.2210536 0.19115427 0.33843049
2.220114 0.20215887 0.33880317
2.2158687 0.42476907 0.34244964
2.2194095 0.46448964 0.33908257
2.2197616 0.47196156 0.33894292
2.2150667 0.49933913 0.34472719
2.2175303 0.52499413 0.33982787
2.215651 0.56878746 0.34057313
2.211592 -0.76170093 0.3408758
2.2105749 -0.75150943 0.34128025
2.2096109 -0.67147654 0.3252781
2.2099228 -0.66419077 0.32515174
2.2050965 -0.57736754 0.33104226
2.2046142 -0.569287 0.3300572
2.2129745 -0.55074424 0.32193765
2.2068675 -0.49517381 0.32835969
2.2097006 -0.35219854 0.32326731
2.2139812 -0.3262921 0.32284826
2.2142556 -0.31480744 0.32695609
2.2090914 -0.29897797 0.33175731
2.2101917 -0.28062558 0.3247602
2.2111037 -0.23781335 0.3226974
2.2111037 -0.23226722 0.3226974
2.2115579 -0.20114689 0.32488343
2.2115741 -0.18981795 0.32573915
2.2150984 -0.17513801 0.32503352
2.2051909 -0.11633959 0.33078891
2.2130265 -0.10341284 0.32474175
2.2049949 -0.072995633 0.32911655
2.2058613 -0.061950982 0.33024213
2.2054634 -0.050907865 0.32892728
2.2120786 -0.008553626 0.33413571
2.2128508 0.0088932384 0.3255007
2.2144456 0.022882992 0.32331926
2.2152934 0.052494805 0.32495388
2.2111278 0.064105906 0.32532197
2.2123663 0.082064763 0.32218462
2.21229 0.10134172 0.32397431
2.2091744 0.11703122 0.32348093
2.2133081 0.13259245 0.32509869
2.2155273 0.15985981 0.32485932
2.2165532 0.17256097 0.32642195
2.2174268 0.18602413 0.32895711
2.2123563 0.20880421 0.32811746
2.2108214 0.22588141 0.32873327
2.2104721 0.23839705 0.3242704
2.2035029 0.30269703 0.33315724
2.2101331 0.31713274 0.33126625
2.2169232 0.33317831 0.32773331
2.2142696 0.35185638 0.32629877
2.2125802 0.37100866 0.32868281
2.2155614 0.38663775 0.32813966
2.210927 0.40390441 0.32743666
2.2114756 0.42313117 0.3270556
2.2082546 0.46157447 0.3331708
2.2126279 0.47561356 0.33050323
2.2088389 0.49968323 0.33307454
2.2077045 0.51322019 0.32880962
2.2147605 0.52499413 0.33503065
2.2096634 0.56798398 0.33460888
2.2084179 0.58647573 0.33860284
2.2064159 0.60379267 0.33607611
2.2132082 0.61507142 0.32184273
2.2029915 -0.79882902 0.31414652
2.2031589 -0.78673071 0.31671375
2.2035835 -0.7464062 0.3162306
2.2031789 -0.73072833 0.31456512
2.1955755 -0.70948374 0.3172009
2.1972897 -0.69112277 0.31698909
2.2017336 -0.67440099 0.31664312
2.2037983 -0.66400278 0.31579387
2.2044125 -0.57750714 0.31750745
2.1993399 -0.56615633 0.31977627
2.2014325 -0.54897445 0.31611261
2.2031157 -0.53113252 0.31409582
2.2021224 -0.51166785 0.31809568
2.2015295 -0.49364701 0.3190304
2.2032552 -0.43407184 0.30610427
2.1940961 -0.42072278 0.31386459
2.1983068 -0.40368152 0.31278265
2.2020502 -0.38594756 0.31607246
2.2016788 -0.36821026 0.31667256
2.2010102 -0.34965265 0.31694007
2.2045896 -0.33069453 0.31367707
2.2039249 -0.31507286 0.31573796
2.2026987 -0.29813948 0.31821984
2.2037897 -0.28028741 0.31626719
2.2061305 -0.2677255 0.31197253
2.2092547 -0.23781335 0.3194949
2.206027 -0.22252214 0.31157166
2.2046485 -0.20552818 0.31325409
2.2044637 -0.18771453 0.31552121
2.2029412 -0.17358163 0.31535989
2.1954408 -0.11665025 0.32152617
2.1982281 -0.099582203 0.31764683
2.2003901 -0.072995633 0.32114103
2.1999438 -0.061647978 0.31967968
2.201664 -0.0482178 0.31534734
2.203033 -0.025911981 0.31491908
2.1986747 -0.0103964 0.31197008
2.2058179 0.0092479698 0.31333846
2.2086732 0.022599693 0.31302723
2.2022243 0.052303873 0.31841731
2.2024271 0.062904947 0.31764716
2.2056658 0.082490996 0.31373575
2.2045772 0.10045379 0.3134937
2.2022016 0.11847218 0.31479919
2.1953149 0.13441102 0.32068333
2.1986492 0.15130879 0.32020894
2.2102044 0.16620363 0.3157115
2.2072299 0.21121742 0.32032114
2.2053676 0.22804554 0.31526232
2.206465 0.23926203 0.31271312
2.1977987 0.3022992 0.32237947
2.197659 0.31253189 0.32053494
2.2119999 0.33295843 0.31837478
2.2058275 0.35225284 0.31330845
2.2045097 0.37006128 0.31550106
2.2027025 0.38818216 0.31624648
2.1974702 0.40333629 0.31995118
2.2047164 0.4237178 0.31475121
2.1980259 0.4412114 0.31767133
2.2021558 0.45951611 0.31755981
2.2055137 0.47124097 0.32101536
2.1955841 0.56689554 0.32048321
2.202471 0.60560435 0.31831145
2.2066576 0.6144982 0.31462148
2.1985297 -0.79704285 0.30608541
2.1957786 -0.78188848 0.30348709
2.1954553 -0.76262355 0.29902738
2.1973736 -0.74628806 0.30014762
2.1953006 -0.7285617 0.30147594
2.1906655 -0.71033698 0.30341807
2.1896274 -0.69156194 0.30385983
2.1929247 -0.67646664 0.30446067
2.199065 -0.66396523 0.30784622
2.1920767 -0.56251478 0.30281845
2.1919398 -0.54857796 0.3028847
2.1961427 -0.53123641 0.30112499
2.1978517 -0.51904917 0.29952243
2.2007141 -0.43699589 0.30020297
2.1865914 -0.4195534 0.30512318
2.1908345 -0.40458599 0.30335042
2.1923335 -0.38646764 0.30272681
2.1884506 -0.36795256 0.30452538
2.1937411 -0.3518568 0.30282047
2.1984842 -0.33048362 0.30179933
2.1975708 -0.31343076 0.29944041
2.1967971 -0.29719025 0.30122796
2.1977644 -0.28206474 0.30336016
2.2009399 -0.26751339 0.30309385
2.2007124 -0.21764961 0.30119985
2.1978247 -0.20508707 0.29982299
2.1968637 -0.18743743 0.30133811
2.1929016 -0.17119902 0.30139875
2.1941142 -0.16169709 0.30197114
2.1892338 -0.11330726 0.30967483
2.1923819 -0.099305451 0.30694887
2.1969345 -0.0589866 0.30323309
2.1980648 -0.047753207 0.30111369
2.2025681 0.0099273073 0.30241385
2.2028008 0.019184567 0.30231667
2.1944275 0.052293196 0.30581376
2.1941357 0.0633661 0.30461413
2.1965175 0.075400211 0.30593365
2.1902189 0.13486099 0.31152382
2.1927798 0.14423256 0.3104592
2.2006493 0.35388467 0.30321518
2.197876 0.37149906 0.3033804
2.1914864 0.38763043 0.30307946
2.189184 0.40227565 0.30563059
2.1986632 0.42909625 0.30602553
2.1960354 0.44094908 0.30513692
2.1967015 0.45242852 0.3056522
2.1914115 0.58514392 0.3050898
2.1949697 0.60372412 0.30558598
2.2004619 0.61402923 0.30726552
2.1929634 -0.74276483 0.28702891
2.1894641 -0.72828394 0.28369686
2.1887693 -0.71029061 0.28416079
2.1916883 -0.69575346 0.28956991
2.1890314 -0.56294894 0.28271809
2.1885002 -0.55040318 0.28477731
2.1901407 -0.5329811 0.28804311
2.1930211 -0.51915556 0.28850302
2.1936584 -0.42192194 0.28756538
2.1937737 -0.41201183 0.28818214
2.1821153 -0.3835856 0.28892589
2.1850002 -0.36836183 0.28594625
2.1884522 -0.35420176 0.2844651
2.1930332 -0.31096935 0.28689963
2.1915209 -0.29756004 0.28554738
2.1919217 -0.28789145 0.28697479
2.191165 0.38678053 0.29128852
2.1940038 0.39656609 0.29008085
2.1879902 0.55578941 0.27866462
2.1874125 0.56488103 0.27891436
2.1855986 -0.72481817 0.27368912
2.1858485 -0.71194941 0.27358049
2.183712 -0.56353879 0.27250496
2.1828396 -0.5529598 0.27317208
2.179723 -0.36857921 0.27424523
2.184058 -0.35826346 0.27235445
2.182019 0.55407661 0.26722297
2.1808677 0.56671154 0.26772895
2.1824412 0.57773286 0.27105424
2.1556597 0.19645768 0.23066843
2.155432 0.20197597 0.23077384
2.1577351 0.46617922 0.23376286
2.1440432 0.50199986 0.23604736
2.1549766 0.55274987 0.23098475
2.1555839 0.5621528 0.23070352
2.1475735 -0.72345328 0.21616301
2.1483674 -0.7181952 0.21578817
2.149071 -0.60222697 0.21975671
2.1476576 -0.58724958 0.21815872
2.1477835 -0.4299829 0.2140266
2.1446092 -0.38685837 0.21552853
2.1502774 -0.2232506 0.21284656
2.1508627 -0.11959732 0.21461011
2.1456833 -0.076842047 0.21705548
2.1449976 -0.068216063 0.21670131
2.143306 -0.026615124 0.21777111
2.1425838 -0.015915565 0.21851985
2.1422429 0.043043256 0.21868017
2.1466186 0.13805172 0.2162087
2.1432619 0.15044911 0.21769497
2.1384876 0.16440383 0.21842504
2.1518683 0.18687831 0.22350153
2.1533573 0.20933962 0.22768046
2.1411023 0.22996537 0.2206682
2.1418762 0.24365646 0.22169454
2.1424761 0.26144165 0.224369
2.1461291 0.27546173 0.22091064
2.1500266 0.31848851 0.21907838
2.1454718 0.33288375 0.22154823
2.1419466 0.35050231 0.22085011
2.1450784 0.36412632 0.21734107
2.139621 0.47558835 0.21788874
2.153506 0.56999809 0.22354937
2.1517131 0.58746189 0.21420851
2.1378808 -0.72863978 0.21262509
2.1445756 -0.71598321 0.21147074
2.1409001 -0.64021027 0.21089061
2.1384282 -0.62966204 0.21032321
2.1331213 -0.59956372 0.21597609
2.1351852 -0.58753687 0.21187222
2.1371248 -0.56679565 0.20006566
2.1366737 -0.43311393 0.21928334
2.1352274 -0.42340869 0.21062878
2.1370451 -0.40261045 0.20772724
2.1433682 -0.30631986 0.2038794
2.1433682 -0.3007718 0.2038794
2.1423323 -0.27540836 0.20846042
2.1391637 -0.26357251 0.20565546
2.1335588 -0.24150288 0.20858893
2.1323333 -0.22316799 0.2113248
2.1335866 -0.2054363 0.20856997
2.1401596 -0.19193003 0.20425045
2.1332338 -0.15212028 0.206701
2.1463289 -0.1326161 0.20450754
2.1407249 -0.10994007 0.21330057
2.1350513 -0.095939428 0.21159817
2.1341231 -0.08688914 0.2115659
2.1425369 -0.065755844 0.21243951
2.1337342 -0.027040301 0.21202537
2.1359198 -0.014569873 0.21326311
2.1426764 0.0080584791 0.20748135
2.1435647 0.026552737 0.20542009
2.1391392 0.04119359 0.21405408
2.1352746 0.088954903 0.21386036
2.1362813 0.10060891 0.21163917
2.1386766 0.11570452 0.20980331
2.1387942 0.13320313 0.20919223
2.1349607 0.15158355 0.21062262
2.1359539 0.16258278 0.21353687
2.1344528 0.23254004 0.21018767
2.1369982 0.23996358 0.21344605
2.1339018 0.33497065 0.20998266
2.1375537 0.34485421 0.21480757
2.1426883 0.36604109 0.21236762
2.1418233 0.39022112 0.208703
2.1352401 0.40117133 0.20880078
2.1368594 0.47742915 0.21310562
2.1292698 -0.59567487 0.20045982
2.1318946 -0.58503103 0.19150713
2.1339421 -0.57389057 0.19205333
2.1310549 -0.53197908 0.19755229
2.1268449 -0.41985992 0.19346914
2.1295142 -0.41046262 0.19748342
2.1251712 -0.35416085 0.20086116
2.1296642 -0.25522101 0.20026867
2.1257892 -0.21787515 0.2041814
2.1259022 -0.21237788 0.20412678
2.130461 -0.15396082 0.20192313
2.1256142 -0.1360655 0.19679484
2.127465 -0.094954632 0.20133404
2.127465 -0.087599061 0.20133406
2.1306415 0.13137841 0.20183586
2.1299644 0.15341793 0.20216316
2.1253743 0.2979885 0.19541301
2.129118 0.3336302 0.20257235
1.9708135 0.82583296 -0.08698573
1.9697886 0.8363921 -0.091260985
1.9741362 0.84853458 -0.093730137
1.9684687 0.93406314 -0.096546687
1.9688817 0.94536728 -0.096831605
1.9690881 0.95471835 -0.096973963
1.9663129 0.9957993 -0.081281222
1.9734885 1.0090439 -0.084352456
1.9675395 1.0961549 -0.095905796
1.9664273 1.1040757 -0.092582487
1.9521654 0.82562536 -0.099927522
1.956692 0.83660108 -0.10148023
1.9655368 0.85794699 -0.10752419
1.9656577 0.87108088 -0.10446484
1.9630672 0.88818562 -0.098402143
1.966524 0.91507536 -0.10641418
1.9644159 0.92640233 -0.10311171
1.9643902 0.94553471 -0.099694021
1.9607513 0.95547891 -0.097913586
1.9619677 1.0381387 -0.099206842
1.9584011 1.051704 -0.10354657
1.9636089 1.0656941 -0.10663036
1.9629859 1.0919445 -0.1017095
1.9593415 1.1026716 -0.10365491
1.9503732 -1.1578506 -0.1184266
1.9512773 -1.1472318 -0.12677222
1.9493694 -1.1005424 -0.12812643
1.9521416 -1.0876092 -0.1233255
1.9511715 -1.0699315 -0.12419759
1.9502958 -1.0587006 -0.1253971
1.9450371 -1.0329446 -0.1205193
1.9456601 -1.0143654 -0.11871789
1.9476355 -1.006676 -0.1246301
1.9474591 0.83888608 -0.10876915
1.9444592 0.97612029 -0.1111322
1.9438442 1.0051692 -0.11069733
1.9426255 -1.1426272 -0.13290067
1.9401 -1.1247704 -0.13051513
1.9379258 -1.1099617 -0.12669805
1.9445037 -1.0635494 -0.13255402
1.9445556 -1.0564132 -0.13221453
1.937314 -1.0391997 -0.12400743
1.9395598 -0.99635196 -0.12561786
2.2262208 -0.28854221 0.33638108
2.2308087 -0.28372532 0.33257756
2.2351618 0.10130913 0.32886761
2.2409976 0.20391938 0.3364751
2.2367907 0.22986913 0.33218902
2.2368786 0.24244678 0.32950744
2.2393677 0.33634377 0.33315203
2.2387409 0.34742907 0.33340004
2.2278769 0.38681346 0.33939189
2.2313781 0.39822426 0.33631325
2.2347913 0.42087373 0.33347529
2.2346768 0.48093566 0.33302742
2.2339721 0.49752122 0.33330691
2.2320931 0.53425753 0.33405212
2.222753 -0.6545127 0.32041359
2.2318337 -0.63869101 0.31760362
2.2328439 -0.56274962 0.31985277
2.2236118 -0.54776335 0.31961271
2.2245381 -0.48825508 0.321217
2.2268214 -0.47852707 0.31764394
2.2295771 -0.46003562 0.31519493
2.2257421 -0.38657868 0.3167524
2.2282908 -0.37027469 0.31571734
2.2195415 -0.33063719 0.32389536
2.2202237 -0.31457931 0.331368
2.2227359 -0.28844461 0.33184481
2.2225735 -0.28054485 0.32756373
2.2189374 -0.26096463 0.31951606
2.2206745 -0.24056397 0.32277471
2.2184572 -0.23015544 0.32268411
2.2230091 -0.2035816 0.32381871
2.2185299 -0.16770127 0.32206029
2.2184048 -0.15272963 0.32430497
2.2233782 -0.1373899 0.32301253
2.228085 -0.12018098 0.32673535
2.2163856 -0.096237831 0.32451266
2.2173805 -0.081186578 0.32375118
2.22434 -0.059656098 0.32724842
2.218884 -0.043287009 0.32435247
2.2187946 -0.032682993 0.32551831
2.2193522 0.030959928 0.32331821
2.2220438 0.044093147 0.32253066
2.219764 0.064920686 0.32644731
2.2275717 0.081181467 0.32560354
2.2302191 0.095749289 0.32565334
2.2264466 0.11538902 0.32177266
2.2288079 0.13763621 0.32426196
2.2232714 0.15199755 0.3247095
2.2184644 0.16977024 0.32894641
2.2186646 0.19117905 0.31962681
2.219522 0.20300379 0.3192786
2.2263029 0.22520931 0.33239797
2.2286732 0.2447689 0.3232362
2.2269676 0.26112527 0.32222486
2.2232366 0.27882192 0.32537946
2.2223589 0.2945092 0.32453889
2.2206247 0.34133673 0.33268815
2.2209332 0.34627387 0.33322269
2.2215631 0.39335454 0.33231345
2.222162 0.40105617 0.33010069
2.2198515 0.42199907 0.33003658
2.2212398 0.48234639 0.3241539
2.2282398 0.49638581 0.32276103
2.2155001 0.51200378 0.32091194
2.2247317 0.53263342 0.32300797
2.2238424 0.54358387 0.31951204
2.2135417 -0.65630651 0.30980071
2.217308 -0.63809502 0.30811015
2.2075038 -0.62034768 0.30433801
2.2077627 -0.60214144 0.30572364
2.2101192 -0.58083481 0.30624276
2.2051177 -0.57333773 0.30532998
2.2132266 -0.54204333 0.31787428
2.2079079 -0.51162964 0.30576247
2.2097337 -0.49536526 0.30407554
2.2165685 -0.47759372 0.30898497
2.2219732 -0.45894924 0.30556336
2.2179549 -0.44175974 0.30742207
2.2115424 -0.42576814 0.31062454
2.2152281 -0.25791585 0.30948439
2.217087 -0.24338219 0.3073425
2.2116861 -0.22625993 0.3103745
2.2110624 -0.2129242 0.31479317
2.2126853 -0.16543937 0.31293735
2.2139518 -0.15220106 0.30910966
2.2151477 -0.13573468 0.30968031
2.2114003 -0.12556469 0.30471209
2.2114828 -0.091904655 0.31660429
2.2092154 -0.081835262 0.31104136
2.2067425 -0.069713704 0.30664396
2.2114909 -0.039536521 0.31156167
2.2110674 -0.029375315 0.30763549
2.2096806 -0.010464794 0.30343312
2.2048848 0.00067236618 0.30542681
2.2082629 0.0309173 0.31065217
2.2147563 0.043385029 0.30929902
2.2062333 0.15552621 0.30566183
2.2107944 0.17311345 0.30916283
2.2151823 0.190125 0.30912188
2.2137001 0.20809112 0.30864972
2.2094462 0.22269782 0.3070145
2.2088218 0.24694133 0.31174529
2.2120323 0.26030719 0.31042618
2.2130477 0.27898934 0.31000537
2.2123961 0.29556605 0.30922619
2.2081585 0.3186256 0.30764684
2.2086821 0.33423617 0.31028852
2.2051177 0.34507856 0.30532998
2.2162912 0.46588686 0.30268353
2.2188458 0.47930682 0.30613366
2.2211223 0.49649444 0.30634353
2.2178633 0.51361787 0.30834389
2.2171364 0.53198421 0.30801252
2.2165203 0.54806077 0.30671331
2.209892 0.56820881 0.31209913
2.2048848 0.57832056 0.30542681
2.2156436 -0.8125878 0.29093698
2.2066567 -0.80001837 0.29034892
2.2030408 -0.78525168 0.29132375
2.1972482 -0.76781899 0.28984272
2.2028103 -0.68675476 0.28633443
2.2056746 -0.67350125 0.29157284
2.2073483 -0.65652531 0.29197279
2.2065747 -0.63774472 0.29326755
2.2025213 -0.6205228 0.29445848
2.2011497 -0.60342908 0.29503685
2.2016695 -0.5850482 0.29481825
2.1999497 -0.57191443 0.2946561
2.2017279 -0.51091784 0.29479304
2.2048793 -0.49622038 0.29455355
2.2052636 -0.47837389 0.29330388
2.2083602 -0.46003324 0.29231179
2.2022345 -0.44344354 0.29258668
2.1971712 -0.40324292 0.28873342
2.1977119 -0.39593709 0.28850335
2.2008786 -0.34544769 0.29182175
2.2039571 -0.33553612 0.2909207
2.1979437 -0.32184061 0.28840479
2.2095549 -0.27774766 0.28904369
2.2075238 -0.26025882 0.29254603
2.2058339 -0.24386418 0.29254916
2.2097251 -0.22701688 0.29089737
2.2038062 -0.20956191 0.28763047
2.1986058 -0.18943636 0.28983703
2.1959352 -0.16598165 0.28925917
2.2048087 -0.15154326 0.29349598
2.206794 -0.13497068 0.29265845
2.2038867 -0.11895195 0.29297087
2.205884 -0.099232763 0.28953245
2.2031326 -0.080287211 0.29471838
2.202709 -0.064491495 0.29212707
2.2050731 -0.041820657 0.29112822
2.2060382 -0.027187118 0.29297447
2.2066648 -0.010473927 0.29270986
2.2029564 0.0077359355 0.29275352
2.1997747 0.02690872 0.29528388
2.2075953 0.044646718 0.29179633
2.2037594 0.063828297 0.28893635
2.2058494 0.083054297 0.29253268
2.2086506 0.099247411 0.29187503
2.2109547 0.11611466 0.29090071
2.2041166 0.13428138 0.29377651
2.2015295 0.15265436 0.29487583
2.2047248 0.17145661 0.29352966
2.207813 0.18997775 0.29256108
2.2072656 0.20655091 0.29207468
2.2058856 0.22355518 0.29303977
2.202847 0.24176967 0.2943165
2.2018366 0.26019067 0.29474741
2.2033317 0.27893287 0.29411724
2.205615 0.2978074 0.29315194
2.2029784 0.31597555 0.29426515
2.2033279 0.33352819 0.29466161
2.2055156 0.35012284 0.29139405
2.2062523 0.36808875 0.28982446
2.2021153 0.37956175 0.28663012
2.1990497 0.40871224 0.29193151
2.2085755 0.42304856 0.29169503
2.2090158 0.43978748 0.28820732
2.211231 0.45659474 0.29379386
2.2155483 0.48182583 0.29164696
2.2128882 0.49640644 0.29009035
2.213392 0.51379228 0.28949639
2.2096577 0.53126884 0.29172868
2.2081404 0.54918945 0.29209161
2.2071066 0.55845815 0.29052541
2.2022235 0.58020484 0.30056715
2.2135088 0.60522401 0.28580931
2.2125354 0.61655402 0.28804213
2.2043154 -0.79949135 0.27401292
2.2042167 -0.78266984 0.2733337
2.199631 -0.76530594 0.2754111
2.1923666 -0.7493766 0.27924502
2.2035832 -0.70410502 0.27192378
2.2036281 -0.69236255 0.27358466
2.2024233 -0.67394954 0.27410269
2.2050495 -0.65985924 0.27733794
2.2045162 -0.63691646 0.27601999
2.1984284 -0.62095398 0.27563608
2.1958661 -0.60554963 0.27940592
2.201508 -0.58174986 0.27823249
2.1977036 -0.57054007 0.27968901
2.1935251 -0.54345036 0.27225226
2.1961474 -0.53029466 0.27482089
2.1974664 -0.51613897 0.27730557
2.2044334 -0.49089959 0.27508324
2.1997163 -0.47738615 0.27560106
2.1990459 -0.45900518 0.27589443
2.2002919 -0.44083282 0.2768136
2.2036362 -0.42307478 0.27422646
2.196702 -0.40285605 0.27790475
2.1953716 -0.39011917 0.27230754
2.1977117 -0.34818015 0.2751286
2.2006831 -0.33459422 0.27552539
2.1977839 -0.31820062 0.2779009
2.2039285 -0.2977199 0.27137139
2.2056496 -0.27861407 0.27538374
2.1989975 -0.26061383 0.27633503
2.1984379 -0.24284528 0.27615348
2.2031906 -0.22520663 0.2744934
2.201803 -0.20892361 0.276315
2.1964612 -0.18843865 0.27733824
2.194346 -0.17001559 0.27791381
2.1973076 -0.15167819 0.27664435
2.1973047 -0.13495792 0.27664915
2.1980495 -0.11827731 0.27632818
2.20314 -0.10396074 0.27735585
2.2072039 -0.075729281 0.28044423
2.2035918 -0.062564276 0.28198794
2.2040009 -0.041410446 0.27859646
2.1998813 -0.027229134 0.2755363
2.1995649 -0.010485216 0.27567354
2.1961894 0.0074515375 0.27764931
2.1974304 0.027749794 0.2777299
2.2027292 0.04436446 0.2748535
2.2005358 0.064735472 0.27989498
2.2004066 0.081529088 0.28033826
2.2040989 0.1004331 0.28096622
2.2065959 0.11719638 0.27768344
2.2019725 0.13505241 0.27616915
2.1960118 0.1526124 0.27753815
2.1988633 0.16738543 0.28049785
2.1998899 0.19133081 0.27483547
2.2043254 0.20532739 0.27483368
2.209049 0.21714191 0.27764052
2.2019432 0.24877958 0.27799889
2.1983206 0.26121065 0.27653638
2.2022431 0.2799243 0.27652732
2.2042091 0.29788539 0.27494168
2.201196 0.31283376 0.2755388
2.2043829 0.33331397 0.27451292
2.2008498 0.35057762 0.27511877
2.2002032 0.36907518 0.27539831
2.1998525 0.38700822 0.27664337
2.1959548 0.40439993 0.27968237
2.2056663 0.4235155 0.27323419
2.2054119 0.4395079 0.27276835
2.2102137 0.48591056 0.27915794
2.203701 0.49851367 0.27615872
2.2007031 0.51432532 0.27518484
2.1993709 0.53259146 0.27575794
2.1976106 0.54833394 0.27741203
2.2000513 0.56415933 0.2809931
2.1967318 0.58471334 0.27555642
2.1981785 0.60291773 0.27627224
2.1998024 0.6164152 0.27557436
2.1923776 -0.79833525 0.26146498
2.1918802 -0.7826435 0.25966394
2.1928785 -0.76571107 0.25785989
2.1862371 -0.74710643 0.263354
2.1833827 -0.72973686 0.26552564
2.1855941 -0.71000844 0.26460227
2.196254 -0.69140857 0.25906754
2.1951416 -0.67425567 0.25741136
2.1966157 -0.66175389 0.25766191
2.1952634 -0.63458878 0.25562072
2.1917725 -0.62103415 0.25889748
2.1896648 -0.60658294 0.25881648
2.1923139 -0.58058965 0.25832158
2.1858368 -0.5664252 0.26193544
2.1894979 -0.55156434 0.26272646
2.1931767 -0.53168559 0.26130512
2.1932745 -0.5199514 0.26631841
2.1961462 -0.49123362 0.25629297
2.1953433 -0.4766719 0.25732169
2.1960998 -0.46004543 0.25805476
2.2008808 -0.44722942 0.26299328
2.1989524 -0.39969644 0.26248661
2.1957221 -0.38623774 0.26213422
2.1896787 -0.36869165 0.26234031
2.1949935 -0.34933805 0.26354572
2.1958036 -0.33638847 0.2638658
2.194118 -0.31095618 0.25177997
2.1917868 -0.29742286 0.25484261
2.1898413 -0.28038487 0.25570554
2.1983347 -0.23428966 0.26208341
2.1981618 -0.2249465 0.26215917
