# .PCD v0.7 - Point Cloud Data file format
VERSION 0.7
FIELDS x y z
SIZE 4 4 4
TYPE F F F
COUNT 1 1 1
WIDTH 1449
HEIGHT 1
VIEWPOINT 0 0 0 1 0 0 0
POINTS 1449
DATA ascii
1.133526 0.026568048 0.10940445
1.1191162 0.027517663 0.10331295
1.1472372 0.047663257 0.1111245
1.1350552 0.044247396 0.10773406
1.1206075 0.044508774 0.10252576
1.1448706 0.060363777 0.11523989
1.1340196 0.061838839 0.10884725
1.1216648 0.061701644 0.10101005
1.14335 0.079576001 0.11529828
1.1337533 0.080065131 0.10854561
1.1221282 0.08023715 0.10233324
1.1443388 0.092511013 0.11423656
1.1343526 0.097359993 0.108707
1.1208895 0.098282382 0.10425761
1.1505691 0.12006341 0.11228469
1.1348578 0.11602898 0.10795924
1.1207777 0.10931878 0.10676184
1.1522733 0.13239954 0.11431393
1.1381736 0.13418567 0.10470667
1.1484306 0.14450726 0.10984308
1.1375626 0.15212333 0.10499529
1.1217563 0.15251015 0.10567831
1.1454136 0.17356579 0.11745781
1.1344128 0.169283 0.10842314
1.1218683 0.17806207 0.10555438
1.1463971 0.18778908 0.11812504
1.1356012 0.18714534 0.10711946
1.1260078 0.18859774 0.099175945
1.1469815 0.20067443 0.11139911
1.1352487 0.20576036 0.10617389
1.1221006 0.21094672 0.10410753
1.1294696 0.22405392 0.10907381
1.1202055 0.22030735 0.10535622
1.1344707 0.24464902 0.10836782
1.14543 0.25986633 0.11306496
1.1328263 0.25985518 0.10959727
1.1226242 0.26677689 0.10312842
1.1482352 0.27781704 0.11296544
1.1346303 0.2788913 0.10819109
1.1227539 0.27746004 0.10298321
1.1477773 0.29492801 0.11264676
1.1341264 0.29535675 0.11131594
1.1484306 0.30742425 0.10984308
1.1330247 0.3134186 0.10988232
1.1199709 0.31662866 0.10368662
1.1489012 0.33317739 0.1129789
1.1355014 0.33220196 0.1078953
1.1211004 0.33206955 0.10337216
1.1508304 0.34311727 0.11294986
1.1351812 0.3492012 0.10483848
1.1215343 0.34860483 0.1017513
1.1510304 0.37319404 0.11297309
1.1383382 0.36841452 0.104149
1.1224179 0.36791015 0.10234365
1.1500887 0.37977391 0.11279774
1.1391321 0.38115218 0.10135755
1.1272812 0.3837525 0.093390763
0.97866678 0.42950204 -0.049667723
0.96930534 0.42818257 -0.052665241
0.96788776 0.43796584 -0.060965311
0.95806682 0.4446229 -0.064124733
0.97188282 0.4584465 -0.063964553
0.95633036 0.45802331 -0.067279376
0.97068417 0.47535178 -0.066886798
0.96142191 0.47636926 -0.069976494
0.97023106 0.50260139 -0.068356514
0.95965254 0.49440733 -0.071644358
0.97016084 0.50739783 -0.068249837
0.95968944 0.51061815 -0.072609678
0.96324438 0.52963698 -0.070658527
0.97162312 0.55116659 -0.063570634
0.9603548 0.54743111 -0.068986349
0.96902746 0.56309414 -0.064610384
0.96300614 0.5656746 -0.06663388
0.96981013 0.59262955 -0.067716688
0.95893621 0.58577192 -0.06730932
0.96954209 0.60369754 -0.065392055
0.95787579 0.60253322 -0.068337396
0.96608579 0.61984289 -0.062049929
0.9542172 0.62018734 -0.0666456
0.94248736 0.62743646 -0.071705148
0.96600664 0.63852578 -0.059437945
0.95277995 0.6373952 -0.066240698
0.94321907 0.63439381 -0.072859056
0.96637291 0.65255487 -0.060759593
0.95289844 0.65475804 -0.065468594
0.95652831 0.67494464 -0.071078226
0.96966982 0.69569296 -0.067503445
0.96217525 0.69200879 -0.070980296
0.97193396 0.71071035 -0.065548696
0.96106958 0.71073109 -0.070079647
0.95379657 0.72656125 -0.068492308
0.97448719 0.74374253 -0.061292913
0.96190214 0.74253696 -0.074042343
0.99458528 -0.74562341 -0.06609913
0.98287237 -0.74373144 -0.070157744
0.96769762 -0.74097162 -0.072186209
0.996436 -0.72938478 -0.065763533
0.98191422 -0.73058265 -0.070243321
0.96802402 -0.73318964 -0.072684847
0.99356198 -0.71132106 -0.062396646
0.97922355 -0.71180153 -0.067473121
0.96843612 -0.70598048 -0.071388841
0.9940393 -0.69467622 -0.058807939
0.97993368 -0.69848746 -0.066149347
1.005779 -0.68154097 -0.043297224
1.1319995 -0.61599249 0.079800338
1.1618347 -0.59695625 0.10691322
1.1725006 -0.58530074 0.11389328
1.1653672 -0.58737063 0.11217818
1.1745807 -0.57537752 0.11053759
1.1617142 -0.56673217 0.11226479
1.1572963 -0.55045152 0.11243056
1.1459267 -0.54823577 0.10601345
1.1580451 -0.53558612 0.11252794
1.1455137 -0.53969401 0.10586547
1.1621053 -0.51729625 0.10852741
1.1740623 -0.49675807 0.11107985
1.1554557 -0.49521226 0.11195157
1.148082 -0.49224412 0.10427976
1.1560773 -0.48443142 0.11112598
1.1509082 -0.48255631 0.10003478
1.1890559 -0.40308484 0.12807693
1.1777791 -0.40032187 0.12133746
1.172093 -0.38788387 0.11838132
1.1723342 -0.36396736 0.11288719
1.1748115 -0.35220984 0.11468268
1.1733514 -0.33402437 0.11545451
1.1618654 -0.33521745 0.11915299
1.1727778 -0.31680208 0.1168441
1.16563 -0.31698558 0.1151984
1.1715512 -0.30213383 0.11639747
1.1684173 -0.2983214 0.11227038
1.1776158 -0.27919137 0.11648659
1.1656051 -0.27835643 0.11287566
1.177508 -0.26430053 0.11545367
1.1660417 -0.25968143 0.10942325
1.1737167 -0.23883907 0.11144131
1.1600071 -0.24527159 0.11170737
1.1731925 -0.22554424 0.11317115
1.1594585 -0.22427097 0.11647119
1.1731982 -0.20773812 0.11198348
1.1600987 -0.20960382 0.11140305
1.1723089 -0.18878347 0.11591538
1.1587033 -0.1895351 0.11496804
1.1730772 -0.17283724 0.1178171
1.1577752 -0.17230262 0.11445891
1.1751977 -0.15265839 0.11425497
1.1629056 -0.15848321 0.11537807
1.1756121 -0.14090136 0.11418538
1.161186 -0.13458775 0.11484571
1.1464862 -0.12975261 0.1071916
1.1697637 -0.1121674 0.11715204
1.1553189 -0.11834017 0.11397362
1.144803 -0.12223411 0.10531218
1.1702797 -0.0999863 0.11879924
1.1595719 -0.10020789 0.11303582
1.1728526 -0.088681541 0.11234502
1.1605364 -0.081181839 0.1099152
1.1500584 -0.076772913 0.10333922
1.1698495 -0.065623246 0.1172526
1.160537 -0.064986952 0.11222711
1.1650965 -0.046195548 0.10986279
1.1696737 -0.031515777 0.11723861
1.1627802 -0.029840183 0.11449519
1.1699908 -0.0075629479 0.11827802
1.1631241 -0.0083526941 0.11547688
1.1698985 0.0074422508 0.12013505
1.1594799 0.0074210679 0.11461683
1.1723349 0.025546713 0.11819107
1.1566794 0.027017226 0.1136061
1.172815 0.036255199 0.11395738
1.1604185 0.042830121 0.10706084
1.1586545 0.06302359 0.11350556
1.1611873 0.080956891 0.10916485
1.1723342 0.10686195 0.11288719
1.1608483 0.098768659 0.10953338
1.1464862 0.10583055 0.1071916
1.1726798 0.11015756 0.11252574
1.1601212 0.11401205 0.1099373
1.1464862 0.10905772 0.1071916
1.1748786 0.1368131 0.11416472
1.1671102 0.13665012 0.11155234
1.1768068 0.14463727 0.11294048
1.1552167 0.15138115 0.11077968
1.1744943 0.17728885 0.11062799
1.162533 0.17076296 0.10954841
1.1692784 0.19087969 0.11725605
1.1601335 0.18988489 0.11690279
1.1673962 0.20131373 0.11961652
1.1595846 0.20718352 0.11063057
1.1484424 0.21112707 0.10508198
1.1709539 0.22959766 0.11798862
1.159668 0.22476697 0.10969839
1.147666 0.22414136 0.1035395
1.1710526 0.24220718 0.12344228
1.1607193 0.24287064 0.10856692
1.1479535 0.24141388 0.10275454
1.1701161 0.25879124 0.12169624
1.1619998 0.26053128 0.10913356
1.1731716 0.27555475 0.11319428
1.1630182 0.27854577 0.11125617
1.1577344 0.2982893 0.11080299
1.1769103 0.31506026 0.11591094
1.1579396 0.31418341 0.11222938
1.1755503 0.32940349 0.11247943
1.162809 0.33093059 0.11163135
1.1748132 0.35596591 0.11147715
1.1600165 0.35136771 0.1109478
1.1455702 0.35440284 0.10580435
1.1737546 0.36782295 0.11258394
1.1588135 0.36633894 0.11338574
1.1466563 0.360838 0.10700817
1.1622043 0.38332546 0.10800985
1.14815 0.38444108 0.10302183
1.1411629 0.38987654 0.084190741
1.1200776 0.39438322 0.073712014
1.0099059 0.42784733 -0.041762862
1.0053082 0.43109366 -0.046360701
0.99492079 0.43617985 -0.060401265
0.98324353 0.44229424 -0.065868989
0.98376948 0.45568252 -0.068381503
0.98437071 0.47777885 -0.06964986
0.99138325 0.4940367 -0.065659367
0.98161548 0.49416551 -0.070545763
0.97067463 0.49617302 -0.074807063
0.99637669 0.51029247 -0.067312799
0.98412162 0.51208264 -0.070001274
0.97032493 0.51861191 -0.07427305
0.99651974 0.53813386 -0.06752342
0.98143744 0.5298779 -0.07039842
0.96962535 0.53271443 -0.07320483
0.9962936 0.5461871 -0.06576056
0.98388708 0.54549986 -0.068589725
0.99700451 0.57277268 -0.066331439
0.98340923 0.56699103 -0.067611717
0.99713182 0.58295339 -0.065060236
0.98142916 0.58421499 -0.070010193
0.98092449 0.60175234 -0.066365957
0.98983347 0.62307692 -0.063367233
0.98085469 0.62061799 -0.064546429
0.99404705 0.63902003 -0.06188206
0.9820438 0.6366781 -0.06542179
0.99598801 0.65366995 -0.063525431
0.98424906 0.65743172 -0.068908334
0.96906567 0.66480631 -0.072350226
0.98083043 0.673724 -0.069393903
0.96765178 0.67349362 -0.073658109
0.99592829 0.69625467 -0.065699033
0.98330963 0.69214088 -0.070270784
0.96822625 0.68349338 -0.071068361
0.99539948 0.70961541 -0.064525798
0.9842869 0.70860052 -0.068612553
0.9939152 0.72422087 -0.063685462
0.97969478 0.72897649 -0.069082417
0.96676522 0.72909218 -0.073725969
0.99241614 0.74970013 -0.066040754
0.98420227 0.74078333 -0.068692289
1.023029 -0.75895953 -0.066057235
1.0161481 -0.75939846 -0.071847968
1.0211539 -0.74988234 -0.067166254
1.0083437 -0.74813795 -0.067366831
1.0191385 -0.73122871 -0.066176467
1.0075088 -0.72931594 -0.063091241
1.0239829 -0.71004957 -0.064578503
1.0101922 -0.71269298 -0.067116797
1.0247506 -0.69531816 -0.059994698
1.0090889 -0.70144647 -0.065914169
1.1849427 -0.59809959 0.10684603
1.1733028 -0.59883535 0.10713835
1.1569294 -0.60853982 0.091118641
1.2010812 -0.58771926 0.11489716
1.1887076 -0.58504444 0.10833711
1.2002736 -0.56827474 0.11203745
1.1840185 -0.56622607 0.11018909
1.1983049 -0.55615854 0.11083905
1.1883858 -0.55020362 0.10550192
1.1928709 -0.52485245 0.11521612
1.1837265 -0.53083378 0.11003656
1.1738098 -0.53109282 0.10592796
1.1976764 -0.52229601 0.11029902
1.1831622 -0.51494026 0.10974278
1.1714525 -0.51351917 0.10552374
1.1801299 -0.50128669 0.10830871
1.1734753 -0.50412691 0.10695724
1.1954273 -0.40140244 0.12572744
1.1841794 -0.39917755 0.11942916
1.1945051 -0.38736698 0.11773407
1.1837753 -0.386179 0.11587031
1.2006329 -0.3692615 0.11868076
1.1824783 -0.37061173 0.11295524
1.1999896 -0.35204011 0.11681243
1.1885741 -0.35325193 0.11128654
1.2003648 -0.33412045 0.1183589
1.1898962 -0.33625814 0.10984231
1.1988225 -0.31593499 0.11663584
1.189742 -0.31719297 0.11113904
1.1979374 -0.30361292 0.11273164
1.1866676 -0.29878429 0.10938238
1.2001207 -0.28194207 0.11612721
1.1925879 -0.25755915 0.1181908
1.1837497 -0.25695705 0.11388899
1.1949965 -0.24261534 0.12224685
1.1824136 -0.24454205 0.1120201
1.1745099 -0.24937427 0.1058704
1.2004771 -0.22642855 0.11889765
1.1856387 -0.22606553 0.11188144
1.1965129 -0.20914474 0.11620666
1.1839281 -0.20795742 0.11046638
1.1730442 -0.20817252 0.10741007
1.1927632 -0.19111356 0.11689577
1.1850077 -0.19041446 0.11450648
1.1941816 -0.1728489 0.11387507
1.1880302 -0.16943482 0.11217861
1.1989605 -0.15262865 0.11016895
1.1896621 -0.15576802 0.11017162
1.1978512 -0.1426464 0.11012023
1.1895474 -0.13436154 0.10644963
1.200802 -0.11725476 0.1152874
1.1871314 -0.1188911 0.10853375
1.1942375 -0.098400958 0.11734881
1.1862535 -0.099034101 0.11331692
1.1974813 -0.08170411 0.11427586
1.1863724 -0.081479825 0.10861947
1.2132497 -0.062405359 0.12558934
1.2029017 -0.06335263 0.11677333
1.1846654 -0.06262026 0.11200683
1.2113504 -0.053464942 0.12468021
1.200706 -0.050746463 0.11493588
1.1833954 -0.046562705 0.11083883
1.1727854 -0.046400405 0.10768186
1.1954628 -0.028937791 0.11633499
1.1856948 -0.027738329 0.11041168
1.1981115 -0.010558076 0.11221896
1.188089 -0.011880319 0.10903022
1.1982658 0.0080698458 0.11786388
1.1873487 0.0075365482 0.11381874
1.1986754 0.025724171 0.11400845
1.1877583 0.025222497 0.11365891
1.1997349 0.043592159 0.11198056
1.1872461 0.04454584 0.10771225
1.1736559 0.046833754 0.1029659
1.2006272 0.062687121 0.11461103
1.1842268 0.061673444 0.10997331
1.1736476 0.05492511 0.10677613
1.198922 0.07968048 0.11907177
1.1814307 0.079514436 0.11286222
1.1726562 0.076104432 0.10781763
1.2012529 0.098921292 0.11361503
1.1834127 0.097703338 0.11081382
1.2026868 0.11540255 0.11464006
1.1848457 0.11631938 0.11000657
1.1743947 0.12041084 0.1059913
1.1972218 0.13348863 0.11155315
1.1844145 0.13192393 0.11322967
1.1981955 0.15353709 0.11936619
1.1834077 0.1528644 0.11172239
1.1720382 0.15595493 0.10477384
1.1953099 0.16970475 0.1203403
1.1812103 0.16958153 0.11327818
1.1716162 0.1649293 0.10574653
1.1959491 0.1868393 0.11646749
1.1843874 0.18778154 0.11280729
1.196295 0.20495327 0.11643045
1.1841482 0.20683539 0.11193821
1.1983287 0.22500114 0.1133504
1.1830932 0.22219035 0.11271564
1.1943619 0.24168289 0.11963787
1.1850511 0.2363586 0.11853328
1.1993345 0.25959012 0.11955844
1.1878225 0.2645058 0.11411563
1.199914 0.27694768 0.11619416
1.1823301 0.27923763 0.11350586
1.1937637 0.29585472 0.11950483
1.1815083 0.29602978 0.11328559
1.1707956 0.29567847 0.10539274
1.1989349 0.3157869 0.11918616
1.1838139 0.31153864 0.1157808
1.2119408 0.32626119 0.1240919
1.1967273 0.33135599 0.12132332
1.1821045 0.33420885 0.11521219
1.1964269 0.34998223 0.12036309
1.1814313 0.34935799 0.11364658
1.200177 0.36421403 0.11562815
1.183778 0.3688488 0.11397214
1.1963595 0.38155463 0.11322466
1.1828271 0.38108274 0.11245959
1.175027 0.38569155 0.10532714
1.1595671 0.39434069 0.078553431
1.1677912 0.39571935 0.079353184
1.0397857 0.43011904 -0.039106414
1.0320007 0.43415359 -0.050545119
1.0173227 0.43862048 -0.05618443
1.0075263 0.44382408 -0.067447521
1.0195028 0.45782414 -0.063085549
1.0079211 0.45750391 -0.070586525
0.99618763 0.4587149 -0.075376339
1.0226706 0.47568688 -0.063077666
1.0066326 0.47574705 -0.068026923
0.99491495 0.47288591 -0.071838543
1.0218128 0.49031511 -0.066212922
1.0075638 0.49437347 -0.0703936
1.007143 0.51120842 -0.069345117
1.0210385 0.53491563 -0.066621847
1.0073625 0.53075713 -0.069526263
0.99666744 0.52822655 -0.073474482
1.0208796 0.54722148 -0.065825976
1.0110719 0.54866666 -0.069041684
1.0207129 0.55941093 -0.068432204
1.0062987 0.56598878 -0.068118893
0.99631077 0.56401211 -0.072947063
1.014662 0.58093387 -0.062580362
1.0049185 0.58322555 -0.061290216
1.0213962 0.60945702 -0.067513369
1.0084352 0.60421234 -0.071871378
0.99482441 0.60365045 -0.073208809
1.0205153 0.61874211 -0.064357676
1.0080333 0.61978972 -0.069356456
0.99609697 0.61623544 -0.072630711
1.0194049 0.634462 -0.066558249
1.0084755 0.63612986 -0.068323553
1.0142475 0.65800399 -0.059871651
1.0064903 0.65866375 -0.06336087
1.0203441 0.67118174 -0.0627909
1.0063072 0.67445129 -0.067854442
0.99598998 0.67506415 -0.07247249
1.0212992 0.69858444 -0.067374475
1.008155 0.6921612 -0.069168128
0.9962039 0.68504804 -0.072788924
1.0194113 0.70743603 -0.062780641
1.0100734 0.71124393 -0.066767909
1.0183122 0.72759902 -0.06241205
1.0076097 0.72835845 -0.066169634
0.99534822 0.73504388 -0.071523331
1.0179075 0.74600196 -0.061573695
1.0053854 0.74586034 -0.065718122
0.99541944 0.74001044 -0.071628764
1.0123951 0.7580381 -0.059337571
1.0039392 0.75738662 -0.064832732
1.038658 -0.76130009 -0.057027664
1.0325511 -0.75961739 -0.061745673
1.0378534 -0.7566402 -0.058716364
1.0321703 -0.7511732 -0.06966731
1.0446453 -0.72228009 -0.068187714
1.0371671 -0.72631633 -0.07474684
1.0440547 -0.71846932 -0.067364089
1.0396061 -0.71332192 -0.069236822
1.0503417 -0.68757558 -0.047995638
1.0442441 -0.6935069 -0.05805321
1.0422795 -0.70223492 -0.070553623
1.0541672 -0.68282247 -0.044877443
1.2054933 -0.60198802 0.10468115
1.1954365 -0.60126925 0.10310929
1.2241852 -0.58405077 0.11778672
1.2087212 -0.58264565 0.1179499
1.2285695 -0.56827962 0.1169669
1.2113688 -0.56941128 0.11435685
1.2355671 -0.54151958 0.12414832
1.2264017 -0.55000705 0.11947016
1.2086191 -0.54943758 0.11232544
1.2369076 -0.53570312 0.12471113
1.2258964 -0.53259462 0.11942742
1.2097855 -0.53289676 0.11038756
1.221583 -0.52042985 0.11730586
1.2113301 -0.51810497 0.10793531
1.1973631 -0.51173359 0.10350391
1.2303116 -0.41760877 0.11591297
1.2200742 -0.40559542 0.12001939
1.2114699 -0.40286517 0.11659732
1.2235439 -0.38719517 0.1210687
1.2112128 -0.3896755 0.11406069
1.2242136 -0.3688646 0.11957662
1.213607 -0.37024558 0.11774441
1.2264588 -0.35239074 0.11762255
1.2146481 -0.353883 0.11494064
1.2384294 -0.33168998 0.12369625
1.2268898 -0.33446935 0.11827248
1.2181214 -0.328206 0.1116523
1.236474 -0.31837773 0.12460054
1.2257586 -0.31704006 0.11974224
1.215223 -0.31637251 0.11377414
1.2312709 -0.29829344 0.12833743
1.2226056 -0.29837993 0.12335918
1.2071066 -0.29762265 0.11431292
1.2230659 -0.28101999 0.11996286
1.2103286 -0.27707443 0.1153247
1.2388297 -0.25460106 0.12564316
1.2247534 -0.26107559 0.11931436
1.2092649 -0.2637268 0.1125036
1.2398756 -0.24464415 0.12751397
1.2268174 -0.24442801 0.11833587
1.2129127 -0.24872395 0.1168733
1.2379142 -0.23101954 0.12653077
1.2272086 -0.22607334 0.11798444
1.2178272 -0.21822283 0.11194739
1.2260652 -0.2065423 0.11657116
1.2139335 -0.20627478 0.11113735
1.2372229 -0.19291829 0.12253376
1.2272443 -0.1906417 0.11790427
1.2118244 -0.18960054 0.11093513
1.2193762 -0.17347419 0.11785689
1.2092153 -0.17200074 0.1122804
1.2236302 -0.15228751 0.11987782
1.2087007 -0.15427485 0.11346018
1.2379723 -0.1328606 0.12569907
1.2257825 -0.13580149 0.12004508
1.2080253 -0.13633995 0.11200412
1.2386211 -0.12059553 0.12627061
1.2238399 -0.1174113 0.121287
1.211428 -0.11953435 0.11758061
1.222791 -0.10039816 0.12033468
1.2107629 -0.100674 0.11433034
1.2264162 -0.082388319 0.11675072
1.2097514 -0.081569694 0.11557244
1.2240653 -0.066672578 0.12209138
1.2242264 -0.045538835 0.11624909
1.2119381 -0.043568384 0.11041874
1.2275734 -0.02691753 0.11713826
1.2125137 -0.026638841 0.11303256
1.2375362 -0.0056708036 0.1222283
1.2265407 -0.010655054 0.11898263
1.2095958 -0.010597307 0.11472318
1.2371762 0.0076951776 0.12444917
1.2246798 0.0076592518 0.12081517
1.2125759 0.0063059474 0.1164303
1.2237781 0.025440115 0.11924469
1.2096741 0.025817906 0.11699335
1.2202802 0.043772794 0.12252699
1.2081316 0.04422351 0.11720128
1.2348511 0.067743376 0.12484653
1.224663 0.063345827 0.11976885
1.2101347 0.060876053 0.11840859
1.2362832 0.074516833 0.12345012
1.2251196 0.079266109 0.11921015
1.2120078 0.082119249 0.11840767
1.2368201 0.10630602 0.12292652
1.2269642 0.0997779 0.1165389
1.2113737 0.097830556 0.11657166
1.2364422 0.11218446 0.12516482
1.220259 0.11476732 0.12458053
1.2095873 0.11837804 0.11895714
1.2244693 0.13334031 0.11603367
1.2115234 0.13466962 0.11128747
1.2242092 0.15343699 0.11621723
1.216122 0.14775397 0.11051149
1.2230276 0.16734239 0.12150813
1.212623 0.17061169 0.11664259
1.2228805 0.19491534 0.11476141
1.2131019 0.18864544 0.11299673
1.2222829 0.20519303 0.11741841
1.2096868 0.20668344 0.11648519
1.2220606 0.22757901 0.12028214
1.2092997 0.22385694 0.1162653
1.2359613 0.24295983 0.12551475
1.226591 0.2426495 0.11891967
1.2127249 0.24183176 0.11424591
1.2358178 0.25982317 0.12390388
1.2250909 0.26035058 0.12008493
1.2170818 0.25539291 0.11426593
1.2353882 0.2847552 0.12432285
1.2228577 0.2779102 0.12298355
1.2100731 0.2796379 0.11893921
1.2370887 0.29649171 0.12563772
1.2260948 0.29583833 0.11941384
1.2126254 0.29610327 0.1143637
1.2350302 0.30635262 0.12467192
1.2254366 0.31296706 0.11830477
1.2153827 0.31033069 0.11335255
1.2220689 0.32993677 0.1210545
1.2150205 0.33788124 0.1163294
1.2191416 0.34176376 0.11691506
1.2159767 0.34775358 0.1132787
1.2207948 0.36860278 0.11880411
1.2076676 0.36961827 0.11302608
1.2297107 0.38115349 0.11622936
1.2119924 0.38221827 0.11062469
1.1977867 0.39156616 0.095913708
1.1824052 0.39352292 0.087956809
1.0688473 0.42947003 -0.039743133
1.051492 0.4301731 -0.044017036
1.059202 0.43604773 -0.051686484
1.046276 0.44300878 -0.056490138
1.0325214 0.44419938 -0.063144721
1.0444702 0.45414457 -0.059936609
1.0331355 0.4575069 -0.066209652
1.0350999 0.47659868 -0.065515734
1.0419791 0.49420527 -0.058167618
1.0296444 0.49582863 -0.063691109
1.0190977 0.50200194 -0.071815215
1.0402572 0.5101648 -0.057184838
1.0289522 0.51288283 -0.065966912
1.0203732 0.51266676 -0.073651075
1.0454198 0.53230017 -0.065488391
1.0290377 0.52896202 -0.064867541
1.0190252 0.52345353 -0.071710967
1.0460869 0.54782212 -0.061483543
1.0310283 0.54776877 -0.06286668
1.0425435 0.56068164 -0.061008941
1.0292938 0.56620032 -0.065432668
1.0196049 0.5701257 -0.072545364
1.03021 0.58344245 -0.068311095
1.0195324 0.58331233 -0.072441116
1.0444617 0.60457605 -0.065808147
1.0304096 0.60128993 -0.067584895
1.0183638 0.59738076 -0.073043957
1.044885 0.62132126 -0.06460283
1.0353708 0.62100422 -0.068009287
1.0443344 0.63489336 -0.063230731
1.0321956 0.63872975 -0.069469996
1.0423813 0.65917391 -0.065030523
1.0310324 0.6557349 -0.067776263
1.0190977 0.65081567 -0.071815304
1.0416185 0.66694069 -0.063966751
1.034768 0.67595005 -0.068664707
1.0310037 0.69094634 -0.069038294
1.0454574 0.71660548 -0.069320127
1.0359651 0.71152133 -0.069925308
1.0448481 0.73011225 -0.065381549
1.0330623 0.72722602 -0.066773593
1.0474707 0.74735796 -0.064376093
1.0325086 0.74527639 -0.065784611
1.0496873 0.76412302 -0.063445248
1.0352063 0.76556116 -0.070606038
1.049498 0.77452707 -0.063617796
1.040954 0.77328366 -0.068696991
1.0663487 -0.7775054 -0.072647043
1.0725588 -0.77008474 -0.066967145
1.0589747 -0.76441246 -0.067742087
1.0458266 -0.76002175 -0.069834881
1.0713559 -0.74207073 -0.065341651
1.055058 -0.74751985 -0.066121683
1.0421464 -0.74630135 -0.075067528
1.0710361 -0.73025364 -0.063296057
1.057145 -0.73067975 -0.067984991
1.0424943 -0.73436803 -0.075783387
1.0714027 -0.71384591 -0.063745618
1.0567513 -0.71191096 -0.068205677
1.0471555 -0.71256071 -0.071688041
1.0894028 -0.68896824 -0.050300006
1.0681939 -0.69365728 -0.05732761
1.0570443 -0.70002228 -0.062741771
1.0684077 -0.68313712 -0.047430675
1.2069182 -0.60948622 0.091256827
1.2644655 -0.58506751 0.12862098
1.247281 -0.5852716 0.12214126
1.2352651 -0.58628106 0.1188258
1.2590061 -0.56653154 0.12696347
1.2456232 -0.56850344 0.12321815
1.261184 -0.54992032 0.12631321
1.2487268 -0.55129576 0.12160786
1.2606167 -0.54065442 0.12568668
1.2515608 -0.53805399 0.12034325
1.2524552 -0.42996213 0.13113704
1.2455052 -0.42150995 0.12362129
1.2355248 -0.41887578 0.11950986
1.2604438 -0.40339747 0.12678665
1.248093 -0.40581682 0.12134906
1.2354826 -0.40591261 0.11720489
1.2563782 -0.38730994 0.12972137
1.245681 -0.38732156 0.12315819
1.2372217 -0.38769662 0.117848
1.2619342 -0.37074506 0.1258374
1.2477491 -0.36894345 0.12200554
1.2357298 -0.37025821 0.11837125
1.2617005 -0.35314956 0.12621097
1.2506117 -0.35157907 0.11855109
1.241955 -0.35065907 0.11321235
1.2506459 -0.32545915 0.13286309
1.2474658 -0.33308259 0.12528907
1.2560089 -0.31614104 0.13124362
1.2448536 -0.31478065 0.12758175
1.2566168 -0.3002474 0.12716699
1.2467135 -0.29752913 0.12501231
1.2593687 -0.28053832 0.12629499
1.2474943 -0.28000516 0.12156649
1.2371176 -0.27748638 0.11660767
1.2588385 -0.26050809 0.12691376
1.2491459 -0.26401076 0.12096563
1.2401688 -0.26609483 0.11496171
1.2605141 -0.24388956 0.1277816
1.2541605 -0.24368814 0.12485219
1.2754419 -0.22373438 0.1372712
1.2672455 -0.22324863 0.13104884
1.2499026 -0.22479907 0.1207022
1.2389185 -0.21880336 0.11618615
1.2755947 -0.2153094 0.13712917
1.2649952 -0.2087011 0.12979212
1.2498 -0.20801377 0.12002085
1.2373657 -0.21102868 0.1156941
1.264451 -0.1898922 0.12671041
1.2522447 -0.18908003 0.11861638
1.2357464 -0.1826078 0.117728
1.2653266 -0.172897 0.12694164
1.2495427 -0.1723624 0.11995159
1.2349421 -0.17136957 0.11340056
1.2603093 -0.15653114 0.12598029
1.2483138 -0.15393221 0.12146058
1.2367992 -0.15943383 0.11512738
1.2614299 -0.13589333 0.1225756
1.253863 -0.13752998 0.11979169
1.259729 -0.11880944 0.12419811
1.2491755 -0.1158603 0.12364002
1.2607784 -0.091886535 0.12319702
1.2516651 -0.10002138 0.11684639
1.2375789 -0.099535726 0.11749817
1.2595092 -0.08233574 0.12648463
1.2483099 -0.081371084 0.12113682
1.2365249 -0.081030451 0.11853033
1.2557122 -0.064563684 0.12803005
1.2471371 -0.064480484 0.12226936
1.2363545 -0.06306202 0.11693666
1.2599189 -0.046219032 0.12401696
1.2474929 -0.046017889 0.12193182
1.236075 -0.045440383 0.11561569
1.2625777 -0.028708572 0.12428893
1.24885 -0.027565883 0.12063055
1.2355248 -0.032438841 0.11950986
1.2582453 -0.010767926 0.12561354
1.2470711 -0.011171059 0.12315542
1.2585771 0.0077828821 0.12529707
1.2512233 0.0077712424 0.12207398
1.2647372 0.02826402 0.1269594
1.2480772 0.026245393 0.12137079
1.2357173 0.027811836 0.11775769
1.2644655 0.039186094 0.12488052
1.2485827 0.043083943 0.12088646
1.2356952 0.044538967 0.1185609
1.2651042 0.064100921 0.12609059
1.2518203 0.061259743 0.1184185
1.2378346 0.056376662 0.11607455
1.2619214 0.075911775 0.12522367
1.2520554 0.080746219 0.11833207
1.2398117 0.08500126 0.11531147
1.2492102 0.097542122 0.11780778
1.2359409 0.094027914 0.11616959
1.259331 0.12421511 0.12457787
1.2468431 0.11738093 0.12329189
1.2347869 0.12319091 0.11788802
1.2560138 0.13057984 0.12774239
1.2457794 0.13330774 0.12319431
1.2350364 0.13326325 0.1176427
1.2487487 0.15217139 0.11719533
1.2353528 0.15042441 0.1149848
1.2629166 0.17627493 0.12427456
1.2493455 0.17066541 0.1195846
1.2346424 0.17632152 0.1147383
1.2596989 0.18746547 0.13084476
1.2480593 0.18763016 0.1213813
1.2332828 0.18682724 0.11270124
1.2569667 0.20479721 0.12954982
1.2467451 0.20588109 0.12264578
1.2358561 0.20643149 0.11478069
1.2608987 0.22459614 0.12563121
1.247232 0.2244539 0.1221801
1.2354271 0.22213502 0.1142351
1.2636013 0.23902357 0.12384799
1.2508663 0.23989525 0.12101872
1.2596928 0.2660411 0.12423268
1.2506979 0.26197374 0.11882779
1.2645594 0.27897316 0.12605205
1.253165 0.27822372 0.11731223
1.2623165 0.29204646 0.12172982
1.2531153 0.29371506 0.11948735
1.2753197 0.32041848 0.13738471
1.2654942 0.320728 0.12872079
1.2456205 0.31656447 0.12180693
1.2386209 0.31809598 0.11647768
1.2762036 0.32648078 0.13841003
1.2673703 0.32661828 0.12994051
1.247661 0.33178461 0.12094709
1.2377826 0.33279592 0.11553635
1.249334 0.34941128 0.11655652
1.2350374 0.35077259 0.11112192
1.2624069 0.37497905 0.12164348
1.2516452 0.36806458 0.11674473
1.2366694 0.36656645 0.11309724
1.262226 0.38168529 0.12181616
1.2526942 0.38068447 0.11799563
1.2317704 0.38474625 0.11221981
1.2214016 0.39169878 0.10043695
1.2144521 0.39511675 0.093134016
1.0826356 0.43365711 -0.046932124
1.0697616 0.44216561 -0.055571735
1.069141 0.45694807 -0.060038667
1.0586686 0.4614408 -0.067572109
1.0674075 0.47588068 -0.062808283
1.0572026 0.47570628 -0.067965604
1.0471663 0.47637272 -0.074230418
1.0662644 0.48938331 -0.064069375
1.0571209 0.49187139 -0.064631291
1.0474508 0.48527765 -0.072099812
1.0632173 0.51395518 -0.070475198
1.0754273 0.53205258 -0.063709654
1.0630474 0.5291689 -0.070482872
1.0737541 0.54251164 -0.064829104
1.0643409 0.54546708 -0.06958726
1.0715003 0.56915885 -0.064231932
1.0576265 0.56646776 -0.066600405
1.0475984 0.57250357 -0.072305694
1.0719244 0.58400285 -0.063037671
1.0577227 0.58397382 -0.068871379
1.0474092 0.58552712 -0.074174218
1.0725183 0.60081798 -0.062455725
1.0575116 0.60190421 -0.06859915
1.0487058 0.59501791 -0.073849961
1.073606 0.6131072 -0.065566584
1.0605547 0.6196267 -0.067528978
1.0721453 0.63997942 -0.066408478
1.0626649 0.63816351 -0.068952419
1.0703907 0.65756321 -0.064034045
1.0591203 0.65464318 -0.069609717
1.0476476 0.65298009 -0.072374307
1.0721763 0.67315 -0.061049256
1.0581427 0.67373568 -0.070283048
1.0485581 0.6788072 -0.07364399
1.0690899 0.68506205 -0.063400447
1.0584481 0.69217718 -0.070512049
1.0461209 0.69181198 -0.071055755
1.0696155 0.71277297 -0.064112298
1.0595348 0.70997655 -0.070817254
1.0451845 0.70586336 -0.07083042
1.0726342 0.72897261 -0.063227646
1.0580786 0.72709286 -0.0680537
1.0714345 0.74602777 -0.063141733
1.060654 0.74643302 -0.067310721
1.0697613 0.75862867 -0.062472679
1.0615044 0.76499933 -0.062509418
1.0733821 0.78289765 -0.066202648
1.0669467 0.77924746 -0.066392042
1.0769862 -0.77821058 -0.06569647
1.0709885 -0.77923077 -0.070482001
1.0756323 -0.77233601 -0.065484695
1.0787872 -0.75845683 -0.081067987
1.0956028 -0.74262428 -0.065401457
1.0843135 -0.74590111 -0.06868279
1.0936277 -0.72852027 -0.062256813
1.0846725 -0.72968245 -0.063290685
1.0942787 -0.71431744 -0.062258501
1.0840487 -0.7107541 -0.065511771
1.1096512 -0.69150996 -0.054446582
1.0954829 -0.69564474 -0.058244031
1.0817314 -0.69935441 -0.064032182
1.2596902 -0.60397643 0.10301708
1.2828022 -0.58350009 0.13136163
1.2756873 -0.57962132 0.12643859
1.2907881 -0.5696367 0.13035209
1.2761275 -0.56980836 0.12392033
1.274357 -0.54755044 0.12070824
1.2695799 -0.54331571 0.1100782
1.27248 -0.53955752 0.11439262
1.299695 -0.45159698 0.13807203
1.2967212 -0.45138067 0.13615897
1.2979912 -0.44070512 0.13962089
1.2891819 -0.44093385 0.13508005
1.2749174 -0.43677691 0.12558004
1.2978826 -0.42734048 0.14156292
1.2877578 -0.42473441 0.13364443
1.2725459 -0.42415965 0.12436889
1.260793 -0.4239516 0.11849732
1.2840753 -0.40551019 0.13157393
1.2743762 -0.40658081 0.12620582
1.2804846 -0.38891178 0.13391273
1.2717006 -0.387283 0.12884964
1.2843033 -0.36849749 0.13338128
1.2730294 -0.36943325 0.12916712
1.2867837 -0.34952062 0.12790096
1.2745211 -0.35061899 0.12575866
1.3016087 -0.33257383 0.13633244
1.2929091 -0.33333382 0.12988475
1.2738473 -0.33389974 0.1240053
1.2611841 -0.33771574 0.11812256
1.3021026 -0.31217486 0.13588347
1.2933371 -0.31519049 0.12998863
1.2781225 -0.31479791 0.12294398
1.2914147 -0.29917464 0.12797986
1.2751493 -0.29795259 0.12223447
1.3040617 -0.27405119 0.13815182
1.2926091 -0.27969754 0.12693195
1.2745088 -0.28040141 0.12355991
1.2881812 -0.25304806 0.1300938
1.2765735 -0.26310405 0.11992957
1.3013618 -0.23842008 0.13655689
1.29136 -0.2428305 0.13039795
1.2784904 -0.24311672 0.12358509
1.3013618 -0.23157766 0.13655689
1.2932585 -0.22642899 0.13183773
1.2720621 -0.22921953 0.1211273
1.2619965 -0.22608939 0.1173441
1.2910985 -0.21372133 0.12817904
1.2777421 -0.20429012 0.13049684
1.288698 -0.18701571 0.12495371
1.2779813 -0.19095586 0.12795486
1.2907345 -0.17162094 0.12701744
1.2788104 -0.17160963 0.1269581
1.2906374 -0.15368797 0.12665758
1.2790089 -0.1536999 0.12079846
1.2900255 -0.13657357 0.12499542
1.2789216 -0.13600971 0.11972106
1.2915515 -0.11739554 0.12728898
1.2765967 -0.1165925 0.12139021
1.2881968 -0.10194869 0.12261409
1.2749139 -0.099956818 0.12009303
1.2624179 -0.10238632 0.11694039
1.2747219 -0.082354307 0.12073568
1.2731593 -0.063103959 0.12080459
1.2707355 -0.045787051 0.12507674
1.2906388 -0.0249712 0.12626582
1.2794493 -0.026797034 0.12087105
1.2907274 -0.010534544 0.12969974
1.2783468 -0.010880706 0.12059878
1.2895844 0.0061942674 0.12736344
1.2762413 0.007862376 0.12258503
1.2880017 0.026692631 0.12560079
1.2802058 0.02379545 0.12276664
1.288367 0.042965773 0.12409255
1.2771962 0.045165475 0.12170756
1.2887547 0.060961481 0.12303068
1.2741019 0.059146356 0.12675688
1.2872821 0.079786927 0.12159339
1.2773943 0.083071239 0.11791337
1.2886816 0.098604292 0.12309904
1.2763867 0.098219864 0.11927146
1.2655716 0.097977184 0.11391874
1.2870486 0.12228096 0.12648635
1.2730831 0.11553782 0.12292834
1.2639376 0.11311339 0.11548433
1.289543 0.13445017 0.12981804
1.2753757 0.13475457 0.1229332
1.2636216 0.14194037 0.11578708
1.2902976 0.14457786 0.12814443
1.2717294 0.15179281 0.1232008
1.2608732 0.15135783 0.11707921
1.2870992 0.1687444 0.12176414
1.2714033 0.16914557 0.12471452
1.2606124 0.16525713 0.11867039
1.2901071 0.19160764 0.12551439
1.2793252 0.187473 0.12605892
1.2900624 0.20057978 0.12462115
1.2808418 0.20431195 0.11942522
1.2796475 0.2243192 0.11466573
1.2836583 0.24958055 0.12963662
1.2724495 0.24468659 0.12575263
1.2590828 0.24983023 0.11778913
1.2856756 0.26101881 0.13427027
1.2713674 0.26032978 0.1252397
1.2587926 0.25631747 0.11630562
1.2868092 0.27667668 0.13203017
1.2761635 0.2761175 0.12771036
1.283864 0.29777321 0.13310033
1.2705426 0.29686594 0.12704216
1.2603136 0.30162141 0.11778248
1.2871121 0.31524634 0.13225098
1.2727194 0.3135781 0.12355889
1.2600408 0.31291959 0.11545897
1.3021026 0.33484742 0.13588347
1.2932825 0.33252499 0.13236673
1.2727355 0.3364152 0.12308613
1.2627188 0.33857533 0.11665208
1.3057392 0.34511763 0.13951999
1.2924519 0.34768289 0.12760285
1.2744156 0.35015476 0.12159733
1.2608563 0.35180581 0.11687159
1.2848494 0.37424308 0.1285298
1.2716231 0.36744875 0.12528597
1.2606424 0.36334032 0.1186416
1.2841774 0.38083547 0.12915422
1.2709349 0.38207579 0.1269137
1.122231 0.43391755 -0.042927399
1.1062949 0.43676597 -0.047373008
1.0944542 0.44073704 -0.055254012
1.0860211 0.44688505 -0.064406164
1.0913117 0.4490045 -0.06394738
1.0870936 0.45886764 -0.068771675
1.0891335 0.47603041 -0.073365092
1.0911593 0.50002092 -0.063746139
1.0833625 0.49482825 -0.069801576
1.0922993 0.50951803 -0.06276308
1.0815098 0.51231855 -0.067738496
1.0719259 0.51271415 -0.071754336
1.0839924 0.52657777 -0.065854676
1.097541 0.54828423 -0.06655664
1.088914 0.54986668 -0.070116296
1.0717385 0.55496126 -0.071499906
1.0857823 0.56487423 -0.070197403
1.0718884 0.55843931 -0.071703464
1.0953413 0.57845813 -0.066458464
1.0880423 0.58225828 -0.067464113
1.0871506 0.60247248 -0.064651571
1.0969653 0.62244076 -0.06151728
1.0848526 0.62041378 -0.069022827
1.0709885 0.62560058 -0.070482001
1.0951473 0.63564819 -0.060607053
1.0839218 0.63743651 -0.068947412
1.0913117 0.64998525 -0.06394738
1.0846573 0.65460515 -0.069328852
1.0881468 0.67243779 -0.068172961
1.0857645 0.69523823 -0.072567806
1.0753378 0.69995546 -0.076385684
1.0859005 0.70812321 -0.072386667
1.0753378 0.70505673 -0.076385684
1.0961311 0.73529774 -0.064696342
1.0877095 0.72950834 -0.068521671
1.0876822 0.74744445 -0.066026464
1.0834205 0.7658664 -0.067949377
1.0914639 0.78977668 -0.06414862
1.0829192 0.78079069 -0.068338275
1.0708386 0.77442133 -0.070278443
1.1169353 -0.79418468 -0.066607699
1.1177429 -0.78695232 -0.064857334
1.1081405 -0.78255683 -0.067257173
1.0933659 -0.78116673 -0.07605499
1.085114 -0.77532148 -0.083933532
1.1056778 -0.76530355 -0.066850394
1.0923437 -0.76524156 -0.076146334
1.0838807 -0.76732969 -0.084712327
1.106748 -0.74818593 -0.067701221
1.0931171 -0.75436419 -0.074781239
1.1239312 -0.72591728 -0.067213185
1.1120431 -0.73111087 -0.06753999
1.1201092 -0.71040046 -0.064406149
1.1085633 -0.71163732 -0.066944592
1.1392789 -0.68831629 -0.047799636
1.1214066 -0.69440281 -0.057481423
1.1106402 -0.70169371 -0.064064257
1.3025833 -0.59530026 0.12304728
1.3149319 -0.58341569 0.1268937
1.3029658 -0.58559293 0.12456089
1.3065829 -0.56672478 0.1356072
1.2952625 -0.56377101 0.1261362
1.2855481 -0.56207788 0.11664208
1.2931187 -0.55530792 0.12318733
1.2749964 -0.54249191 0.10488836
1.2749964 -0.5390625 0.10488836
1.3097334 -0.45408428 0.13591307
1.3239553 -0.43730199 0.13935158
1.3130088 -0.44084543 0.13664082
1.3211483 -0.43109635 0.14184788
1.3158357 -0.42379317 0.13100876
1.3060324 -0.4185493 0.12474325
1.3162411 -0.40629187 0.12654023
1.3060861 -0.40538746 0.12294381
1.3292398 -0.38829625 0.13857156
1.3189358 -0.38800862 0.1299338
1.3056021 -0.38805747 0.12128139
1.3153099 -0.37521085 0.12699401
1.3038816 -0.36780563 0.124967
1.3134665 -0.34714073 0.12928714
1.3019241 -0.35281387 0.12318516
1.31592 -0.33543834 0.13003469
1.3142446 -0.31704006 0.12751962
1.3087393 -0.29840198 0.13450633
1.2990906 -0.29677299 0.13141808
1.3273237 -0.27411285 0.13635616
1.31538 -0.28229332 0.13419399
1.2952365 -0.27893999 0.12823597
1.2853146 -0.27113721 0.11874197
1.3224957 -0.26266289 0.14064963
1.311002 -0.26172101 0.13708982
1.2955556 -0.26192933 0.12639029
1.2854972 -0.26433137 0.11857083
1.3234724 -0.24955638 0.14162634
1.313072 -0.2463831 0.13499114
1.3012711 -0.2499291 0.13045584
1.3103987 -0.23133442 0.13145186
1.3061769 -0.20504525 0.13217977
1.2970339 -0.20600934 0.12800159
1.3001947 -0.19019547 0.12508407
1.316903 -0.17265411 0.12930472
1.3027523 -0.17255379 0.12716432
1.3128188 -0.15188606 0.13184877
1.2993035 -0.15489803 0.1301551
1.3154155 -0.13618219 0.1306632
1.2999732 -0.13511284 0.1264533
1.3160595 -0.11818859 0.12787333
1.3021216 -0.11673786 0.12844256
1.3162957 -0.10120808 0.12962648
1.2967832 -0.099372856 0.12701412
1.3096149 -0.083163448 0.13370852
1.2961371 -0.082981944 0.12507452
1.2864914 -0.081787221 0.11685469
1.3093868 -0.064310573 0.13158907
1.2970169 -0.064168081 0.12426668
1.2857047 -0.067061037 0.11661308
1.3103073 -0.043863889 0.1357706
1.2965746 -0.045123819 0.12550682
1.3119597 -0.034392212 0.13251774
1.3000771 -0.030224863 0.12535316
1.3160746 -0.011964016 0.12658548
1.3093439 -0.012150072 0.12385663
1.3032023 0.0079589589 0.1226645
1.3279878 0.033958379 0.13808098
1.3148513 0.031782772 0.13176784
1.3006996 0.027219063 0.12517661
1.3269933 0.040160503 0.13850071
1.3161874 0.04286515 0.13101809
1.2996995 0.044490777 0.1254131
1.3122032 0.06264811 0.12748158
1.2977459 0.060627017 0.12720394
1.3130989 0.079898894 0.13028385
1.2966387 0.079991601 0.12530409
1.2857709 0.079849251 0.1183143
1.3117809 0.097033188 0.1317482
1.2979977 0.098848261 0.12697394
1.3107076 0.1172962 0.13155448
1.2987174 0.11584023 0.12542725
1.3142174 0.1343825 0.13012196
1.3024577 0.13117543 0.12859316
1.3180404 0.15115973 0.1303577
1.2982012 0.15377881 0.12487473
1.3126335 0.16985306 0.12964605
1.2982569 0.17081612 0.12492593
1.3153149 0.18683712 0.12992096
1.3000394 0.18729949 0.1256887
1.327199 0.21049665 0.13646701
1.3176556 0.20730571 0.13048515
1.2989893 0.20684864 0.12479255
1.2850535 0.21059936 0.11742032
1.3172137 0.22316742 0.1286421
1.2986101 0.22354239 0.12221527
1.2858279 0.224415 0.1153665
1.3151459 0.24171568 0.1283702
1.2997271 0.24126749 0.12346227
1.2854707 0.23588993 0.11624642
1.3228325 0.2683433 0.14035009
1.314358 0.26151127 0.13127454
1.302788 0.2574212 0.12855498
1.3241769 0.27594292 0.14069274
1.3137006 0.27801839 0.13426745
1.3032219 0.27993533 0.12789884
1.3117049 0.29519197 0.13012256
1.3009176 0.29413366 0.12709747
1.3107249 0.31543478 0.13137378
1.3038238 0.31397638 0.12781151
1.3257207 0.33371499 0.13963214
1.3099906 0.33117497 0.13940601
1.3247038 0.34130439 0.13868597
1.3075603 0.34875861 0.13997531
1.298838 0.35190481 0.13061564
1.3106179 0.36610815 0.13341528
1.3005263 0.36769551 0.12375969
1.3130293 0.37947905 0.12595074
1.3050852 0.38374132 0.12050675
1.1346984 0.438364 -0.053087201
1.121012 0.44461864 -0.063473761
1.1068449 0.44787908 -0.063051127
1.1175067 0.45773038 -0.063620254
1.1052474 0.45901662 -0.065440595
1.0958084 0.46008274 -0.071765997
1.1086956 0.47624245 -0.067498922
1.0962867 0.47647554 -0.07052169
1.1221486 0.50042677 -0.064929955
1.1115427 0.49491557 -0.0711715
1.0959289 0.49036109 -0.072461925
1.1231302 0.51087981 -0.064321518
1.1111958 0.51258838 -0.069358356
1.1082913 0.53020221 -0.070027135
1.0973144 0.53233749 -0.073005781
1.1190709 0.54884493 -0.06416899
1.1094773 0.54664361 -0.067672431
1.1100998 0.56638181 -0.072244227
1.100754 0.56873351 -0.076425172
1.1100142 0.58331007 -0.071407817
1.0962398 0.58880591 -0.072336361
1.1184645 0.61023301 -0.065785609
1.1059102 0.60303545 -0.068978496
1.0975863 0.59942299 -0.072239086
1.1219019 0.6208024 -0.064145446
1.1104754 0.61887807 -0.066939339
1.1229051 0.63819528 -0.06527333
1.1153399 0.6390962 -0.067849614
1.1181089 0.65703684 -0.063931346
1.108457 0.65632266 -0.068722293
1.097708 0.65951878 -0.072400019
1.1187125 0.66851461 -0.064241298
1.1085783 0.67382532 -0.069131248
1.0978799 0.67163831 -0.075135037
1.1088934 0.69200253 -0.069977529
1.0961131 0.69288248 -0.072404191
1.1074569 0.70802903 -0.071918949
1.0954605 0.71276867 -0.072809123
1.1092217 0.72853923 -0.07160674
1.0952489 0.72428077 -0.073657081
1.1219981 0.75111127 -0.063216142
1.1113142 0.74694532 -0.069716051
1.0977842 0.75217086 -0.072500601
1.1191391 0.76271838 -0.060028818
1.1068469 0.76402748 -0.067138277
1.0980127 0.76435786 -0.072802581
1.1210822 0.77700162 -0.066349939
1.1064136 0.78161812 -0.06862627
1.0961219 0.78008294 -0.072807394
1.1021065 0.7928834 -0.066940866
1.1472538 -0.79524428 -0.068815894
1.1370831 -0.79765666 -0.073629059
1.1482142 -0.78891873 -0.067784898
1.1366742 -0.78410745 -0.073145159
1.1270458 -0.77877861 -0.076826304
1.1316606 -0.7667681 -0.073731922
1.1250409 -0.76445091 -0.076356381
1.1475675 -0.73946732 -0.069209084
1.1353351 -0.74680775 -0.073663488
1.1246772 -0.74886143 -0.074716777
1.1488562 -0.72837698 -0.06609837
1.1352444 -0.72893411 -0.068468779
1.1221753 -0.73509288 -0.070560001
1.1481876 -0.70882869 -0.068589061
1.1382878 -0.71361256 -0.071488656
1.1503861 -0.69736677 -0.061582167
1.1320672 -0.70050538 -0.066413358
1.1491625 -0.68312693 -0.043572798
1.3280085 -0.59876418 0.11893925
1.3396248 -0.58595908 0.13008809
1.3298378 -0.58990121 0.12115342
1.3367429 -0.57635242 0.12797999
1.3237875 -0.57247627 0.13022712
1.2873274 -0.54918385 0.085046254
1.3344347 -0.46032053 0.13003235
1.3274381 -0.45478302 0.12975317
1.3378227 -0.43887344 0.13324337
1.3287939 -0.44867545 0.13040186
1.3525569 -0.42025936 0.14092618
1.3379704 -0.42325419 0.13620608
1.3256526 -0.42194587 0.13088448
1.3515608 -0.41175476 0.13973372
1.3423177 -0.40698484 0.13237177
1.3294382 -0.40712464 0.12587845
1.34173 -0.38600391 0.13645734
1.3309221 -0.3802841 0.12616612
1.3406105 -0.36884138 0.12965912
1.3265978 -0.3685126 0.12284359
1.3386916 -0.35785267 0.12156124
1.3244839 -0.3547163 0.1238618
1.3417971 -0.3282353 0.13329342
1.3253956 -0.33151329 0.13018546
1.3487508 -0.30934164 0.14063609
1.3382299 -0.31549725 0.13597843
1.3239871 -0.31606922 0.13004951
1.3504714 -0.29755452 0.13913924
1.3420706 -0.29879686 0.13039842
1.3275205 -0.30067554 0.12765513
1.3498852 -0.28170037 0.1396492
1.339263 -0.27956367 0.13587521
1.3274866 -0.28859386 0.13156947
1.3406715 -0.26179203 0.13417488
1.3418298 -0.24457659 0.13228108
1.3273435 -0.23916478 0.12859757
1.3425329 -0.22551836 0.12999906
1.3236147 -0.22584742 0.12494769
1.3402609 -0.20845991 0.13255194
1.3244498 -0.20929326 0.12674791
1.3539588 -0.18545668 0.13796002
1.3395599 -0.19018421 0.1344872
1.3240627 -0.1908264 0.12531683
1.3532361 -0.17492309 0.13766132
1.3407466 -0.17147624 0.13375606
1.3273311 -0.17095429 0.12705335
1.3400823 -0.15481934 0.13328511
1.3281254 -0.15671025 0.12737638
1.3388159 -0.14267768 0.12769587
1.3271458 -0.1343118 0.12954918
1.3346733 -0.11479322 0.13168487
1.3262678 -0.1178459 0.13007531
1.3395338 -0.09963493 0.13219495
1.3303714 -0.098053895 0.12782502
1.3404175 -0.080248579 0.13082072
1.3294243 -0.080732428 0.12517355
1.3495071 -0.065215096 0.13997813
1.3406433 -0.063674137 0.13330375
1.3286911 -0.062793814 0.12550098
1.3381592 -0.046950538 0.13418108
1.3254775 -0.050354049 0.1302675
1.3511143 -0.021608237 0.13858002
1.3408704 -0.02750654 0.13178325
1.3265772 -0.026909538 0.1239956
1.3514167 -0.011124666 0.1383169
1.3422562 -0.011113095 0.1324231
1.3271885 -0.010333938 0.12718043
1.338852 0.0069658086 0.13268198
1.3233255 0.0082967142 0.12397373
1.314728 0.011522694 0.11501022
1.3372731 0.026715921 0.13317384
1.323842 0.023665262 0.12580337
1.3419639 0.04648 0.13267788
1.3256726 0.050018694 0.12947254
1.3523116 0.058836065 0.13753831
1.3432904 0.062535793 0.13097343
1.3244663 0.061069086 0.12729213
1.3422694 0.079127043 0.12896273
1.3268563 0.079280593 0.12747407
1.3375943 0.095047273 0.12675737
1.3268716 0.10012987 0.12746301
1.3347689 0.11574185 0.13107346
1.3259547 0.11477033 0.12886617
1.3402961 0.13662365 0.12793879
1.3308156 0.13527396 0.12485759
1.3377463 0.15165696 0.13535288
1.3259927 0.15874593 0.13290389
1.33586 0.17070898 0.13270867
1.3263699 0.16949493 0.12863025
1.3523177 0.19397798 0.1390765
1.3408904 0.18885614 0.13176787
1.3276956 0.19008306 0.12828195
1.3520024 0.19975224 0.13935056
1.3409753 0.20372435 0.13332032
1.3273796 0.19903192 0.12934092
1.3389403 0.22521837 0.13255781
1.3294201 0.22791375 0.12784618
1.3384982 0.24098879 0.13489904
1.3247201 0.24133345 0.13108496
1.3415461 0.26023936 0.1324911
1.3288603 0.25855172 0.12661454
1.3373085 0.2781682 0.13863355
1.3514924 0.29652843 0.13825101
1.3401147 0.29605326 0.13238423
1.3256004 0.29828894 0.12775458
1.3533053 0.31791404 0.14130157
1.3387358 0.31378978 0.13504022
1.3246067 0.31441042 0.12982555
1.7362484 0.33721054 0.51982522
1.7317855 0.33621284 0.51500911
1.3532773 0.3279292 0.14248142
1.3395803 0.33102047 0.13664505
1.3263662 0.32516596 0.1325703
1.7378203 0.34253353 0.52092564
1.7327777 0.34251565 0.51600105
1.3391926 0.35110962 0.13349968
1.3397819 0.36753774 0.13274544
1.3295952 0.37031788 0.12735812
1.3374981 0.38386291 0.12808709
1.3268275 0.3861351 0.12212469
1.2925466 0.39814141 0.097689994
1.1532085 0.4382965 -0.043062333
1.145772 0.44243732 -0.056803886
1.1370841 0.44650716 -0.069969848
1.1483521 0.45785913 -0.06739933
1.1369468 0.4576624 -0.072125457
1.148277 0.4712407 -0.067863226
1.1339663 0.47480714 -0.069661111
1.1356239 0.49458516 -0.072879538
1.1387937 0.50875759 -0.069851227
1.1474108 0.53326714 -0.069012575
1.1366181 0.5305537 -0.071741194
1.1245333 0.53241944 -0.073593743
1.1457105 0.55184293 -0.063170299
1.1351238 0.54801959 -0.069165438
1.1465089 0.56182957 -0.063550279
1.1346107 0.56578183 -0.069374397
1.1219056 0.56862497 -0.072456136
1.1331767 0.58453554 -0.069995984
1.1230615 0.58508343 -0.07250227
1.1335276 0.60157448 -0.069937825
1.1218035 0.6017499 -0.074761853
1.137545 0.61728454 -0.071703494
1.1470968 0.64684808 -0.068619303
1.1400802 0.64178228 -0.073514529
1.1493145 0.65467525 -0.064574935
1.1345708 0.6555326 -0.068934225
1.1468855 0.67272991 -0.066759631
1.1361628 0.67510021 -0.07084313
1.1232576 0.68259835 -0.071952507
1.1465474 0.69022202 -0.067931168
1.1354439 0.69227988 -0.071324676
1.1226391 0.6890983 -0.071156763
1.1336303 0.71077895 -0.071354441
1.1236442 0.71163028 -0.076829813
1.1330762 0.7285409 -0.069926307
1.1227931 0.72473133 -0.075680561
1.1303928 0.74261528 -0.066421807
1.1339197 0.7635541 -0.064775422
1.1327673 0.78011435 -0.069160454
1.1201854 0.78845882 -0.073610529
1.1481789 0.80771828 -0.067183629
1.1373843 0.80335307 -0.077053398
1.1253642 0.80076468 -0.080291659
1.1492606 0.81109071 -0.065748349
1.1389457 0.81076092 -0.075144015
1.1295193 0.81013924 -0.082838029
1.1639614 -0.81333679 -0.078447737
1.1600928 -0.80079263 -0.072499
1.1456776 -0.80553573 -0.074028715
1.155732 -0.78292125 -0.071802713
1.1460273 -0.7769593 -0.072870858
1.1745523 -0.76482463 -0.063083768
1.1634508 -0.76511687 -0.073591635
1.1456676 -0.76506859 -0.075351723
1.1854835 -0.75415087 -0.054627497
1.1765147 -0.75151205 -0.061492603
1.1615605 -0.7468853 -0.070401266
1.146197 -0.75259399 -0.075478986
1.1554551 -0.72954202 -0.064705543
1.1870179 -0.70627522 -0.054625187
1.177977 -0.70832163 -0.061692242
1.156942 -0.71123838 -0.067737646
1.1856447 -0.70119452 -0.054819927
1.1741605 -0.69723129 -0.059106905
1.1626679 -0.70057219 -0.064273469
1.3722677 -0.47179505 0.14040624
1.358608 -0.47031337 0.13470979
1.3593447 -0.47055864 0.12206215
1.3722608 -0.46623233 0.13886736
1.364756 -0.46083429 0.13119951
1.3525751 -0.45958191 0.12202962
1.3753108 -0.4355619 0.13626041
1.3651224 -0.44167301 0.13018003
1.3546386 -0.44647327 0.12307173
1.3757265 -0.42355728 0.13983069
1.3686497 -0.42517871 0.13474543
1.3749853 -0.41215411 0.14024842
1.3641121 -0.40687883 0.13294119
1.3614938 -0.38674203 0.13276261
1.375222 -0.36816502 0.13994268
1.3644809 -0.37123767 0.13244
1.3500352 -0.36737421 0.13178532
1.3739315 -0.35312623 0.14207003
1.360724 -0.35161251 0.13569267
1.34587 -0.35171527 0.12689826
1.372656 -0.34092441 0.14223228
1.3611326 -0.33559358 0.13430502
1.3467745 -0.33799765 0.1265683
1.3776467 -0.31346831 0.13937397
1.3642448 -0.31662342 0.13415964
1.3737066 -0.30333439 0.14072549
1.3650091 -0.29868633 0.13554604
1.3628298 -0.27844182 0.1314988
1.3610942 -0.26246086 0.12905049
1.3506831 -0.26550117 0.12966385
1.3602802 -0.24280722 0.13061254
1.3506831 -0.24094434 0.12966385
1.3607686 -0.22431457 0.13762777
1.3598793 -0.20933449 0.13588594
1.3515637 -0.20909376 0.13354959
1.3642904 -0.18952465 0.13273518
1.3648868 -0.1750823 0.13361445
1.3579091 -0.15479499 0.1311152
1.3546373 -0.14845891 0.12619352
1.3608952 -0.1330948 0.1292987
1.3492417 -0.13439171 0.12314022
1.3754153 -0.11548557 0.13772033
1.3641034 -0.11697021 0.13195452
1.351367 -0.11873773 0.12477934
1.3753108 -0.10671395 0.13626041
1.3640305 -0.1024185 0.13068719
1.351658 -0.096989878 0.13346712
1.3599252 -0.08048939 0.1293602
1.3728803 -0.062398247 0.13833781
1.3643005 -0.063063063 0.13550285
1.3711172 -0.053494822 0.13984486
1.3616747 -0.047428511 0.13296066
1.3534133 -0.041070446 0.12726773
