# .PCD v0.7 - Point Cloud Data file format
VERSION 0.7
FIELDS x y z
SIZE 4 4 4
TYPE F F F
COUNT 1 1 1
WIDTH 1448
HEIGHT 1
VIEWPOINT 0 0 0 1 0 0 0
POINTS 1448
DATA ascii
2.5059521 -0.51432312 0.3825849
2.505826 -0.49739021 0.38232231
2.5076945 -0.45679918 0.38629016
2.5070972 -0.44013107 0.38650653
2.5040531 -0.42619085 0.38853705
2.4970019 -0.38425362 0.38656199
2.4976137 -0.37288141 0.3834554
2.5014186 -0.31379968 0.38954559
2.5019302 -0.30212039 0.38909882
2.4979286 -0.25502902 0.38766679
2.4994526 -0.24648367 0.38868546
2.49666 -0.20146617 0.38380337
2.4988611 -0.18801342 0.38867846
2.500071 -0.17665137 0.39121109
2.5034792 0.037867945 0.39861447
2.5051768 0.18961464 0.39692923
2.5005431 0.20728111 0.39028972
2.4997418 0.22291017 0.39033294
2.5006177 0.33397743 0.39177579
2.5004973 0.34787935 0.39271852
2.5037186 0.36372757 0.39852887
2.5034816 0.42918119 0.38853517
2.5038741 0.43920907 0.38875625
2.503474 0.67672545 0.3887485
2.5079629 0.69026494 0.3861931
2.497838 -0.59678549 0.36848718
2.5003152 -0.58978999 0.36943436
2.4964983 -0.52614719 0.37395269
2.4966726 -0.51454145 0.37339228
2.4920611 -0.38453943 0.37558806
2.4958708 -0.36928672 0.37324932
2.4972875 -0.35230097 0.36825943
2.4968963 -0.33266222 0.36633915
2.493396 -0.31417161 0.3729963
2.4933708 -0.30162954 0.37330681
2.4924302 -0.25609434 0.37089434
2.4939802 -0.24413678 0.37268865
2.4950063 -0.2245975 0.37139836
2.4943876 -0.20736147 0.37286818
2.4922848 -0.18915066 0.37457547
2.4944789 -0.14926466 0.36615187
2.4933639 -0.13526157 0.3693949
2.490365 -0.11696677 0.36877596
2.4919 -0.0066885473 0.36645949
2.4892588 0.09772373 0.37135899
2.4906609 0.11690747 0.3726984
2.4880104 0.13066557 0.37182248
2.4880104 0.19459282 0.37182245
2.4907274 0.20702405 0.37515315
2.4909654 0.22561075 0.37506503
2.4890218 0.23946926 0.37307367
2.4882467 0.2978628 0.36956456
2.488785 0.31443855 0.36936414
2.4959896 0.33502129 0.3712984
2.4959087 0.34614238 0.3710528
2.495683 0.4107587 0.36461201
2.4997039 0.42334455 0.36964834
2.4981301 0.43661344 0.36914226
2.495837 0.53113067 0.36237869
2.4967272 0.5499841 0.36204568
2.5003824 0.56960118 0.36450192
2.5040755 0.58211821 0.36585686
2.5017488 0.6020962 0.36399379
2.4877713 0.63611168 0.36974153
2.4892797 0.68133384 0.37352046
2.4964461 0.68753892 0.37521923
2.484 -0.6488049 0.34937692
2.4860213 -0.63766283 0.34947801
2.4895952 -0.6198985 0.35653695
2.4889672 -0.60299158 0.35535482
2.4900053 -0.5900594 0.3551113
2.4891901 -0.52399659 0.36486542
2.4851272 -0.51391196 0.35795406
2.4822655 -0.49949148 0.35003877
2.4796762 -0.43660799 0.35538769
2.4887815 -0.38537532 0.35577601
2.4926462 -0.36934975 0.35423851
2.4928343 -0.3508203 0.35306677
2.4933064 -0.3331807 0.35240248
2.4873438 -0.31564903 0.35684368
2.4862945 -0.2974841 0.35648105
2.4881721 -0.27920312 0.35283312
2.4903665 -0.26115853 0.35220337
2.4894574 -0.24276881 0.3560462
2.4887743 -0.22378001 0.35911009
2.4874272 -0.20811825 0.35681227
2.488147 -0.18956634 0.3565391
2.4864664 -0.17082484 0.35717389
2.4908235 -0.15309864 0.35433239
2.4905014 -0.1335327 0.35519016
2.4876161 -0.11713761 0.35674
2.4823556 -0.10655516 0.35872808
2.4798272 -0.075620309 0.3531487
2.4838212 -0.063342541 0.35163021
2.4854693 -0.046547018 0.35006505
2.4787292 -0.021934967 0.35574725
2.4869437 -0.0091649061 0.35640958
2.4868178 0.0025239761 0.35454282
2.4847884 0.029726543 0.34907609
2.4848871 0.044208869 0.34903845
2.4862237 0.062874101 0.34852841
2.4829419 0.082118109 0.35722017
2.4836233 0.097789325 0.35824832
2.4842508 0.11640401 0.3580105
2.4879866 0.13438569 0.35531136
2.4792688 0.14526255 0.35118213
2.4792027 0.17813157 0.35556749
2.4852009 0.19005953 0.35619056
2.483819 0.20661686 0.35935792
2.4853122 0.22350079 0.36631614
2.4823589 0.29654688 0.35981581
2.4852741 0.31480348 0.35762349
2.4893651 0.33216333 0.35670525
2.4831061 0.39226615 0.35407823
2.4911478 0.40513188 0.35411012
2.4963841 0.42141011 0.35186276
2.4918931 0.43977636 0.35761917
2.4806883 0.46760365 0.35064054
2.481545 0.47884396 0.35626015
2.4833794 0.49488711 0.36133271
2.4872594 0.51218343 0.35795912
2.4906955 0.53066587 0.35373721
2.4931474 0.54926407 0.35610917
2.4935131 0.56798208 0.354954
2.4937594 0.5851593 0.35150322
2.4879012 0.60134584 0.35563365
2.4814682 0.62360495 0.35985541
2.4825144 0.63608485 0.36084512
2.4823563 0.68142027 0.36090422
2.4823031 0.68799078 0.35971504
2.478029 -0.72334945 0.33853507
2.4788668 -0.70933545 0.34225503
2.4821594 -0.69323403 0.33912733
2.4836538 -0.67502064 0.33855313
2.4812839 -0.65650564 0.34010151
2.4756775 -0.63881111 0.34115544
2.4734392 -0.62020314 0.34468472
2.4748983 -0.60227323 0.34193704
2.4776883 -0.58717883 0.33866742
2.4753311 -0.57010037 0.33519581
2.4774108 -0.50989562 0.34096459
2.4789546 -0.49605423 0.33963835
2.4752691 -0.47598967 0.34094661
2.4740202 -0.45850456 0.34178653
2.4786451 -0.44115129 0.34121302
2.4713635 -0.42215624 0.34111521
2.4727712 -0.40408164 0.34086064
2.4814332 -0.39047304 0.34362429
2.4881778 -0.36680123 0.34020427
2.4860115 -0.34992376 0.33764273
2.4823904 -0.334097 0.3405053
2.4800401 -0.32169786 0.34651846
2.4773629 -0.29139063 0.34171444
2.4816186 -0.27989501 0.34052131
2.4851253 -0.26036927 0.34237617
2.4801345 -0.24352506 0.33918217
2.4759598 -0.21854778 0.33495119
2.4790518 -0.20840462 0.34252068
2.4802477 -0.18783788 0.34069142
2.4793429 -0.17098385 0.34021753
2.4846933 -0.1527079 0.33815289
2.482604 -0.13392943 0.33895898
2.4788713 -0.11716571 0.34040052
2.4745541 -0.098551333 0.3425881
2.476589 -0.079959936 0.34192318
2.4793134 -0.063388675 0.34022844
2.4816949 -0.044812929 0.33930936
2.4783232 -0.025676576 0.3418231
2.4731455 -0.010024424 0.34382617
2.4802916 0.0090330746 0.33985385
2.4821384 0.022291582 0.34045288
2.4883235 0.048505191 0.33894926
2.4862504 0.063009538 0.33755019
2.4866917 0.082615614 0.33917573
2.4745495 0.097798102 0.34207085
2.4759839 0.11645947 0.34151673
2.4870124 0.13550763 0.34384513
2.4790475 0.15346378 0.34142435
2.4778042 0.17192413 0.34056243
2.4849613 0.1891057 0.33869007
2.4829657 0.20727471 0.34078541
2.4846942 0.22275388 0.33595446
2.4787636 0.26370111 0.34019682
2.4752793 0.28023523 0.34084427
2.4748578 0.29563561 0.34367347
2.4776819 0.31503439 0.34085846
2.479177 0.33187896 0.33888695
2.4786265 0.35107964 0.33567005
2.4778185 0.37013319 0.34674099
2.4823921 0.3889747 0.34324545
2.4869561 0.4055447 0.33727854
2.4879944 0.41983366 0.33747807
2.4840803 0.44132891 0.33839154
2.4771383 0.46441031 0.33449274
2.4789102 0.47445041 0.33936176
2.4771383 0.49131906 0.33449274
2.4842699 0.5718171 0.33684489
2.4866879 0.58456367 0.33776799
2.4773369 0.60216832 0.34502012
2.4774094 0.62368196 0.34679422
2.4739714 0.63806766 0.34666362
2.4793792 0.67912078 0.34237388
2.4777629 0.6880796 0.349574
2.4792278 -0.6872806 0.32361242
2.4788704 -0.67550218 0.32265979
2.4676359 -0.65487808 0.32465845
2.4645424 -0.63887566 0.32845023
2.465765 -0.61996514 0.3294853
2.4675684 -0.602911 0.32760194
2.4764569 -0.58783948 0.32706252
2.4760199 -0.56655705 0.32668057
2.469667 -0.50886029 0.3255524
2.4712074 -0.49459943 0.32467222
2.4711215 -0.47974148 0.32428601
2.4722421 -0.46027851 0.33201185
2.4735188 -0.43674827 0.32447353
2.4688051 -0.42169094 0.3247728
2.4748387 -0.40556702 0.32287794
2.4788029 -0.39385825 0.3206268
2.4805388 -0.34860122 0.32729948
2.4702089 -0.33437848 0.32549071
2.4681146 -0.29343674 0.32836306
2.4761279 -0.28295156 0.33049273
2.4683235 -0.23983255 0.32652494
2.4810953 -0.21932073 0.32634661
2.4810953 -0.21516837 0.32634661
2.4744687 -0.18687272 0.32205659
2.47175 -0.17111076 0.32340991
2.473289 -0.15257411 0.32280567
2.4744301 -0.13399324 0.32235247
2.4736524 -0.11737102 0.32265556
2.4746723 -0.099121265 0.32393515
2.4749937 -0.079779699 0.32259455
2.4753869 -0.064474307 0.32432601
2.4765158 -0.044544537 0.32189402
2.4740515 -0.026195535 0.3224968
2.4666841 -0.0095760534 0.3276048
2.4689763 0.0090216817 0.32670507
2.4683475 0.025564294 0.32426703
2.4825103 0.063049264 0.32799765
2.4818013 0.087979957 0.32606992
2.4708865 0.098472364 0.32471931
2.4675641 0.1164488 0.32726008
2.4744637 0.13251196 0.31792343
2.4803295 0.15641533 0.3266454
2.479039 0.16992106 0.32739592
2.4818981 0.19381824 0.328237
2.4764671 0.20712808 0.32320568
2.4742954 0.2246265 0.32240945
2.4776471 0.23750982 0.31887469
2.474597 0.26978478 0.3310912
2.4721029 0.2826238 0.32496288
2.4710438 0.29676273 0.32368627
2.4718766 0.31424302 0.32461751
2.4737206 0.33351833 0.32743704
2.4762459 0.34867334 0.3304466
2.4808598 0.40764347 0.3264389
2.4658039 0.42865837 0.32136106
2.4708431 0.44212025 0.32288966
2.4728498 0.45982474 0.32549357
2.4718733 0.47646669 0.32503963
2.4714222 0.49244648 0.32574174
2.4790719 0.678774 0.32934186
2.4793074 0.68713713 0.32924974
2.4672565 -0.64104819 0.31637728
2.464283 -0.51097006 0.31182727
2.4642467 -0.49189815 0.30786428
2.4623485 -0.48211968 0.30287713
2.4686944 -0.41935536 0.30763751
2.4681973 -0.404024 0.30494493
2.4685194 -0.39162347 0.30481553
2.46104 -0.32864708 0.31083661
2.4607236 -0.29541221 0.31016159
2.4586205 -0.2552444 0.31541964
2.4588816 -0.24162884 0.31116563
2.4624114 -0.22578771 0.30683601
2.4685524 -0.20705199 0.30597603
2.4667606 -0.18814856 0.30733657
2.4641476 -0.17070688 0.30810827
2.4636481 -0.15255442 0.30677778
2.4684815 -0.13544677 0.30704492
2.4688375 -0.11749429 0.30911663
2.4595921 -0.097761922 0.31042886
2.4642601 -0.081738316 0.30947953
2.461586 -0.042249672 0.30574846
2.4658723 -0.026679127 0.30640355
2.4610174 -0.0092281401 0.31030673
2.4581683 0.0090054534 0.31560299
2.458241 0.027715491 0.31163013
2.4610455 0.037966803 0.3122445
2.4647031 0.10245019 0.29970503
2.4678292 0.11806022 0.30730113
2.4690313 0.13572861 0.30460876
2.4641733 0.15412939 0.30523697
2.4562259 0.17628334 0.30977201
2.4554079 0.18886136 0.30348
2.4623735 0.20278697 0.30861953
2.4651973 0.23132187 0.31131086
2.4667614 0.28535455 0.3106865
2.465872 0.29710746 0.30897936
2.4665926 0.30734572 0.31222767
2.4597504 0.42329904 0.30908546
2.4628689 0.43949023 0.31077763
2.4640629 0.47783598 0.3121371
2.4663177 0.48915035 0.31675142
2.4643545 0.58496499 0.30372658
2.4596052 0.6428082 0.30752572
2.4615624 0.659266 0.31313962
2.4598823 0.66646576 0.310505
2.4453321 -0.56933182 0.28990382
2.4579141 -0.49560183 0.28469735
2.4596009 -0.4038223 0.29253411
2.4603829 -0.39182156 0.2934728
2.4576039 -0.3347418 0.29815942
2.4566696 -0.29320437 0.29854071
2.4580204 -0.28157765 0.28688106
2.4534121 -0.23830235 0.2980988
2.4573476 -0.22884686 0.29471529
2.4618094 -0.20879257 0.2964434
2.4551673 -0.19586945 0.29693866
2.4590273 -0.1515473 0.2918309
2.4606097 -0.13934216 0.29249078
2.4526913 -0.11398513 0.29193586
2.4538875 -0.099116303 0.29289851
2.452543 -0.080018789 0.28914332
2.4565871 -0.063568123 0.28673166
2.4519145 -0.049908448 0.29605508
2.4514549 -0.023458719 0.29750833
2.4532268 -0.013037243 0.29699421
2.4477344 0.011495529 0.29201397
2.4517634 0.021407422 0.30054262
2.4509423 0.048977003 0.29645407
2.4574142 0.098210119 0.29158029
2.4554317 0.11676656 0.29239717
2.450635 0.13094375 0.29658917
2.4573209 0.23319176 0.28716978
2.4573209 0.23941779 0.28716978
2.447031 0.3227742 0.29584605
2.4458661 0.33327141 0.29460585
2.4458988 0.34562102 0.29188529
2.4509878 0.42314708 0.29570013
2.4537661 0.4351238 0.29751179
2.4601741 0.58333606 0.29711071
2.4432662 -0.56933182 0.28632572
2.436811 -0.54605794 0.28014445
2.4395471 -0.53553098 0.27581248
2.4429455 -0.49703312 0.27757037
2.437479 -0.48386088 0.28430191
2.4481781 -0.4653995 0.27983338
2.4536352 -0.14454925 0.2797856
2.4481549 -0.11309305 0.28429338
2.4460876 -0.09602692 0.2801502
2.4491358 -0.060899485 0.27999231
2.4500368 -0.053156927 0.27905306
2.4426649 0.011769924 0.28361684
2.4511812 0.10438381 0.28303522
2.4471474 0.11760481 0.28026319
2.4470353 0.1955792 0.27585447
2.4470353 0.19972444 0.27585447
2.4419751 0.22941059 0.28242332
2.4432662 0.23828425 0.28632572
2.4428005 0.35181633 0.28651926
2.4423449 0.41931859 0.28522989
2.4324512 -0.53568655 0.27309394
2.4436057 -0.50811386 0.25941497
2.4436059 -0.50188273 0.259415
2.4329693 -0.30343229 0.25949159
2.2839787 1.0932965 0.010939526
2.2839787 1.0994924 0.010939526
2.2844121 1.1307008 0.010690217
2.2844121 1.136898 0.010690217
2.2812266 0.91288882 -0.0058978368
2.2816184 0.92535019 -0.0068136407
2.2863669 0.94400853 -0.010072758
2.2841258 1.0329032 0.0036949432
2.2809153 1.0584857 -0.0073658917
2.2773919 1.0663471 -0.0038689065
2.2808802 1.0932965 0.0055729761
2.2808802 1.0994924 0.0055729761
2.2773807 1.1292216 0.00087554561
2.2772639 1.1363919 0.00050950778
2.2830975 1.1826235 -0.010085527
2.2852838 1.1929864 -0.0079988539
2.2790647 0.88123018 -0.024570372
2.2726717 0.89057809 -0.018368812
2.2719462 0.90325451 -0.016500032
2.2827876 0.95164281 -0.017122205
2.281534 1.0200539 -0.018793402
2.2809262 1.0264884 -0.020845868
2.2700493 1.0558707 -0.012019413
2.2705076 1.1360927 -0.0098924767
2.2635636 -1.2893127 -0.033418953
2.2613692 -1.2444503 -0.035719514
2.2613692 -1.2403134 -0.035719514
2.2611909 -1.0297487 -0.038028654
2.2611909 -1.0214716 -0.038028654
2.2666843 0.89437789 -0.02684732
2.2665412 0.90465993 -0.026761683
2.2461581 -1.3598731 -0.053065497
2.2589073 -1.2903472 -0.041483447
2.259712 -1.2461395 -0.052374903
2.2535222 -1.2333183 -0.046772763
2.2500749 -1.2214159 -0.045781758
2.2543952 -1.1967798 -0.054248404
2.2496407 -1.1774968 -0.049950697
2.2489057 -1.1611761 -0.047485974
2.2481174 -1.144104 -0.048515748
2.2602849 -1.0920414 -0.046197489
2.2586846 -1.0714377 -0.043769285
2.2624023 -1.0525777 -0.046029784
2.2594438 -1.0341805 -0.045268297
2.2569418 -1.0186298 -0.045503698
2.2582414 -0.98256224 -0.055636737
2.254221 -0.94802994 -0.055600241
2.2440932 -1.3578084 -0.056642108
2.2551546 -1.2445757 -0.063482456
2.2436755 -1.1970518 -0.060266118
2.2431402 -1.1782268 -0.058479849
2.2390246 -1.1621385 -0.061588116
2.2437387 -1.1387602 -0.056422826
2.2532403 -0.98009181 -0.062298574
2.2335024 -1.1603701 -0.069485679
2.5431876 0.43576908 0.42139122
2.5364609 0.31331205 0.40424094
2.5346746 0.42430452 0.41153085
2.5342367 0.43669254 0.413138
2.532033 -0.67338067 0.38840544
2.5286705 -0.52491504 0.38524801
2.5286705 -0.52074301 0.38524801
2.5281515 -0.29646221 0.39544833
2.530937 -0.2865065 0.39967301
2.5346169 0.325847 0.40054688
2.5274198 0.42874831 0.40308082
2.5155485 -0.60814714 0.38126984
2.5265841 -0.52491504 0.38163444
2.5249443 -0.51644266 0.38004431
2.5188687 -0.43550599 0.38877049
2.5188687 -0.43135116 0.38877049
2.5057201 0.5908339 0.36524698
2.507076 0.59714729 0.36692899
2.4956841 0.42883459 0.34711477
2.4969804 0.43761313 0.34930426
2.5042758 0.49549335 0.33943418
2.5027401 0.51093233 0.34033626
2.5001688 0.59074473 0.35638213
2.4984713 -0.72406363 0.32619306
2.4973481 -0.71150684 0.32441446
2.4964998 -0.70112157 0.32252863
2.4869192 -0.38482279 0.33215606
2.4883103 -0.3729637 0.3307724
2.4898269 -0.27567157 0.32867122
2.4896472 -0.26145032 0.32962558
2.4881198 -0.24891242 0.32801351
2.4964933 -0.20469533 0.32797986
2.4977798 -0.19562028 0.32424611
2.49401 0.030219952 0.33171624
2.4910052 0.042673845 0.33161816
2.4918404 0.079908289 0.32877073
2.4954438 0.13626277 0.33080995
2.4936388 0.14875928 0.32807228
2.5007544 0.24097688 0.33010638
2.4918897 0.26749748 0.32654327
2.4914184 0.35911754 0.32672706
2.4929066 0.37003571 0.32903552
2.4923954 0.38499328 0.32957256
2.4913185 0.39886391 0.3245542
2.4924498 0.42662746 0.32951337
2.4925616 0.437751 0.33120716
2.4948351 0.48354417 0.3386445
2.4973493 0.49634153 0.33150014
2.4951453 0.51411921 0.33070463
2.4944444 0.53130507 0.33088049
2.4907277 0.54778767 0.32880241
2.4917746 0.56461298 0.32627204
2.4928257 0.58474433 0.32396495
2.4913719 0.60140127 0.32748014
2.4962986 0.62487161 0.32592991
2.4925644 0.63861221 0.32627445
2.4890559 0.65923691 0.33230135
2.4860365 0.67084378 0.3310304
2.493366 -0.70529938 0.31710067
2.4915283 -0.69479913 0.31264019
2.4754701 -0.67240101 0.31310427
2.4751182 -0.6619128 0.31324443
2.4819531 -0.63380235 0.31200004
2.4857225 -0.62499285 0.31123737
2.4864738 -0.59989083 0.31316322
2.4848814 -0.57960361 0.3174887
2.4804201 -0.57071638 0.31611493
2.4814513 -0.47221115 0.31663066
2.4811745 -0.45833695 0.31870636
2.4806736 -0.44588065 0.3181169
2.479156 -0.39807224 0.32048786
2.4807236 -0.38669097 0.31814718
2.4843013 -0.36873046 0.31637108
2.4876904 -0.35239276 0.31394851
2.4875441 -0.34158626 0.31051695
2.4881747 -0.2931506 0.3137522
2.4855328 -0.28056249 0.31575152
2.4829462 -0.26151627 0.31677818
2.484478 -0.24579188 0.32170627
2.4777832 -0.2194974 0.31661049
2.4827924 -0.20695396 0.31649673
2.4841943 -0.19483727 0.32071456
2.4804797 -0.060853828 0.31288117
2.4752355 -0.053258762 0.3131977
2.4878893 0.030968692 0.32036471
2.4844515 0.044908591 0.31662673
2.4834857 0.06321694 0.3165631
2.4821095 0.081492938 0.31667006
2.4752355 0.094238818 0.3131977
2.4888825 0.13946809 0.31664816
2.4840324 0.15220404 0.3153992
2.4782336 0.17167298 0.31698418
2.4818456 0.18871194 0.3191466
2.4805005 0.20263162 0.31331691
2.4819801 0.24592838 0.31656131
2.4880686 0.27583313 0.31992507
2.4820111 0.3213242 0.31493321
2.4823341 0.33326575 0.31332678
2.4861517 0.35139719 0.31515765
2.4875455 0.36990961 0.3149569
2.4861805 0.38636976 0.31549835
2.4862266 0.40278181 0.31516331
2.4886892 0.42225209 0.31450084
2.4870987 0.44175282 0.3177954
2.4862416 0.45489994 0.31269905
2.4851339 0.5128147 0.31626284
2.4866374 0.53287607 0.31626764
2.4865913 0.54904932 0.31533536
2.4873331 0.56341958 0.31524268
2.488364 0.58559829 0.314881
2.4864874 0.59959042 0.31093696
2.4904671 0.62750012 0.31157988
2.490679 0.63838249 0.31332901
2.4843879 0.65145963 0.30955043
2.4831059 0.67728263 0.3244544
2.4880555 -0.67484158 0.30140346
2.4885244 -0.65824074 0.30121523
2.4885244 -0.64568835 0.30121523
2.4766738 -0.58107203 0.30018973
2.4761024 -0.56739444 0.30219939
2.4729488 -0.55054992 0.29894626
2.4778061 -0.53796965 0.29215088
2.4784465 -0.48668313 0.3052597
2.4782708 -0.4762319 0.30533022
2.4767835 -0.45816016 0.30296275
2.4767842 -0.44297636 0.30410749
2.4710951 -0.42635134 0.30377701
2.4753284 -0.38235942 0.30206805
2.4767582 -0.36800894 0.30149201
2.47891 -0.35166493 0.30062523
2.479671 -0.33926517 0.30031896
2.4833055 -0.29295191 0.29853296
2.4784889 -0.28125647 0.2995556
2.4778471 -0.26985359 0.30772132
2.4764616 -0.131047 0.29582217
2.4782856 -0.12280508 0.29508138
2.4743989 -0.077577993 0.29754955
2.4758072 -0.063804418 0.3018758
2.4721758 -0.049708579 0.30682701
2.4687681 -0.024172299 0.30249614
2.4718845 -0.015863413 0.30789366
2.4730077 0.045882169 0.30249321
2.4735188 0.063171037 0.30279958
2.4715042 0.081825234 0.30361053
2.4715397 0.09784402 0.30454692
2.4710021 0.10877719 0.30603176
2.473815 0.15050422 0.30490389
2.4741895 0.17118044 0.30918592
2.4748359 0.18748239 0.30321959
2.4722655 0.24382952 0.30774072
2.48049 0.30087346 0.29239991
2.4882481 0.31448635 0.30207041
2.4809663 0.33784127 0.29755279
2.4817014 0.35061881 0.29811233
2.4796212 0.36823231 0.29831874
2.4750893 0.38546407 0.3026115
2.4791427 0.40273803 0.3033942
2.4832687 0.41702422 0.30111185
2.4718349 0.51080215 0.29680857
2.4774759 0.53844649 0.30120412
2.4774034 0.54884982 0.30123386
2.4777913 0.56651813 0.30068472
2.4797957 0.5843513 0.30472165
2.4809186 0.59950024 0.30204207
2.4825497 0.63874209 0.30329564
2.4777095 0.68023133 0.30110866
2.4781301 0.69237459 0.30129045
2.4641504 -0.71060151 0.28371286
2.4693153 -0.58499837 0.28594455
2.4723229 -0.56403983 0.29215357
2.4751265 -0.55219901 0.2910096
2.4660759 -0.53093475 0.279084
2.4620063 -0.51358378 0.27853501
2.4623413 -0.50279206 0.28286543
2.4696815 -0.38378903 0.29174572
2.470921 -0.37415951 0.29272559
2.4724064 -0.35018682 0.29063204
2.470861 -0.34113014 0.28828833
2.4642751 -0.2755993 0.29321387
2.4729154 -0.16608933 0.28967986
2.4687436 -0.15983258 0.28245419
2.4665742 -0.1323774 0.29153013
2.4676707 -0.12415322 0.28959593
2.4702592 -0.080488585 0.29076627
2.4673877 -0.063762203 0.29060593
2.4638298 0.031944804 0.28894329
2.4653337 0.041825265 0.29111096
2.4633489 0.071468987 0.28691041
2.4667742 0.081953555 0.28773102
2.4644506 0.096645802 0.27751884
2.4662507 0.22632109 0.28124854
2.4700048 0.23832272 0.28863898
2.4765406 0.29959536 0.28595963
2.4763513 0.35196805 0.28379816
2.4746666 0.37146568 0.28851354
2.4688184 0.38365695 0.29358351
2.4662211 0.41288406 0.28795993
2.4662211 0.41704693 0.28795993
2.4687116 0.51080215 0.29139909
2.4707651 0.55059677 0.29278913
2.4713881 0.56116009 0.29253495
2.474659 0.59324157 0.29120034
2.4723229 0.68018019 0.29215357
2.4721944 0.69461143 0.29093105
2.471981 0.70540184 0.29006195
2.4576037 -0.70893133 0.27365944
2.457001 -0.54571962 0.28061581
2.4562831 -0.53108817 0.27280954
2.4560163 -0.51341105 0.26984742
2.4565356 -0.50198376 0.28080934
2.4622142 0.22180331 0.27172929
2.4533308 -0.53064072 0.25975955
2.4515355 -0.51704323 0.25714996
2.4473054 -0.49807942 0.26232287
2.4475431 -0.3136934 0.25323489
2.2992935 1.0345888 0.0059661372
2.3071394 1.051617 0.0010559406
2.3079965 1.1605257 -0.00073673995
2.2915628 0.9296819 -0.0066113714
2.2938333 0.94454175 -0.0043243328
2.3026643 0.95815891 -0.016694203
2.2955515 1.0296004 -0.00051479158
2.3012323 1.0536954 -0.010810985
2.3021965 1.1609181 -0.010592593
2.2971087 1.1787004 -0.0093178013
2.3047903 1.1955787 -0.0092978226
2.2816093 -0.96762019 -0.023663523
2.2952831 1.0616157 -0.024478702
2.2829914 -1.3073034 -0.048767902
2.2823744 -1.2636755 -0.050836481
2.2708197 -1.1716236 -0.043850407
2.2775798 -1.1606599 -0.043505102
2.2776318 -1.1489028 -0.044718262
2.2809622 -1.0894871 -0.049982581
2.2821603 -1.0483032 -0.050707057
2.2709925 -1.0338405 -0.040717907
2.275032 -1.0194108 -0.044454217
2.2821827 -0.99802846 -0.044097017
2.2791646 -0.98326743 -0.044021636
2.2801664 -0.96239477 -0.040206537
2.2776394 -0.953866 -0.045538053
2.2798567 -1.3073034 -0.054197468
2.2792389 -1.2636755 -0.056267135
2.2697029 -1.2098744 -0.057783943
2.2697029 -1.2036233 -0.057783943
2.2689826 -1.1764929 -0.050032362
2.268527 -1.1611134 -0.047321618
2.2717087 -1.1469579 -0.053588085
2.2745123 -1.0143116 -0.05095404
2.2680898 -0.9772476 -0.056792438
2.2668087 -0.96315742 -0.058453355
2.2686756 -0.94883466 -0.051063877
2.260823 -0.97496748 -0.07066372
2.26015 -0.96296978 -0.069018006
2.5511079 -0.22775228 0.39911062
2.5370378 -0.60630238 0.38224104
2.5376954 -0.51224351 0.38200474
2.5377553 -0.50178671 0.38198328
2.5476332 -0.23411164 0.39159286
2.5469143 -0.22984874 0.39184731
2.5349443 -0.60630238 0.37861481
2.5356011 -0.51224351 0.37837753
2.5356607 -0.50178671 0.37835595
2.5104735 -0.72629833 0.31706583
2.5092347 -0.71815473 0.31308678
2.5022252 0.24684095 0.32384491
2.5074558 0.25871378 0.32180524
2.5085287 0.5765667 0.31336409
2.5021522 0.60800493 0.32031891
2.5054436 0.66007996 0.32014477
2.5047426 0.66946381 0.31930616
2.5007129 -0.70883036 0.3097437
2.4930708 -0.63142222 0.30609024
2.4927189 -0.61667627 0.30623055
2.4943228 -0.60034007 0.30559152
2.494909 -0.58792216 0.30535802
2.4944699 0.19756183 0.3077634
2.5017259 0.2629039 0.30800712
2.5008056 0.27689037 0.3059876
2.4921322 0.32300231 0.30646431
2.4923668 0.32931262 0.30637082
2.4918976 0.41084555 0.30655783
2.49367 0.46276429 0.30250305
2.4933219 0.4701328 0.30152521
2.4984801 0.51946485 0.29945984
2.4992955 0.53131217 0.30137235
2.5040903 0.57230681 0.30617648
2.5018241 0.57822484 0.30558497
2.4970551 0.60516125 0.3119356
2.4969149 0.61621314 0.30774745
2.5022538 0.65736061 0.31137067
2.4988222 0.67533642 0.3100518
2.4972491 0.69247967 0.30666038
2.4917367 -0.68739432 0.2985796
2.4980242 -0.67441243 0.29067045
2.4994285 -0.65797794 0.29010287
2.4914804 -0.63788193 0.29490694
2.4899058 -0.62146896 0.29801765
2.4893944 -0.60342783 0.29751447
2.4892418 -0.58781457 0.29645824
2.4862108 -0.44729945 0.29320887
2.489259 -0.17339993 0.28748861
2.4895809 0.19500816 0.30034524
2.4909773 0.20381218 0.30246401
2.4926286 0.26154742 0.29822439
2.4951251 0.31819472 0.29080242
2.4867232 0.33031705 0.2949174
2.4885831 0.40577647 0.29448423
2.4877121 0.41712236 0.29930899
2.49107 0.46172059 0.29795814
2.4912262 0.4701328 0.29789534
2.4947932 0.51990569 0.29287374
2.4963796 0.53276497 0.29582199
2.4784186 -0.37428007 0.27621269
2.4861112 -0.17339993 0.28203624
2.4865777 0.31555116 0.28184485
2.4724822 0.21440718 0.26743093
2.3294013 0.94786674 0.0066155423
2.3213549 1.0918094 0.010821034
2.321893 1.1036639 0.010860245
2.3344553 1.1214319 0.0029529652
2.3333545 1.1478901 0.0019625903
2.3355298 1.1616715 0.00073052436
2.3217983 0.91581935 -0.0035532392
2.322504 0.92743969 -0.0027476337
2.3222384 0.945023 -0.0041863411
2.3221292 0.9631471 -0.0053548627
2.3207834 0.97506988 -0.0078113126
2.3301673 1.0361687 -0.0053073796
2.3322439 1.0486403 -0.0034606783
2.3171637 1.08665 0.0039189421
2.3157222 1.1099977 -7.7868855e-05
2.3254452 1.1238807 -0.002521852
2.3301969 1.1478901 -0.0035066309
2.3318975 1.1627967 -0.004960293
2.3021162 -0.97662479 -0.02364365
2.3062134 0.89612639 -0.026046678
2.3062134 0.902417 -0.026046678
2.3104889 0.93210113 -0.0091416314
2.3149269 0.9465971 -0.011704573
2.3096383 0.96494067 -0.0164614
2.3102467 0.97470254 -0.017988903
2.3087592 -1.3052589 -0.044636119
2.2965355 -1.1602119 -0.039808612
2.2965355 -1.1518294 -0.039808612
2.301357 -1.0312896 -0.041457687
2.3013713 -1.0174005 -0.040244836
2.2979028 -0.98546374 -0.033316165
2.2998073 0.96339834 -0.027142266
2.296768 -1.3043607 -0.045805793
2.2907324 -1.1793288 -0.050984804
2.2944396 -1.1602119 -0.043438826
2.2914624 -1.1492916 -0.048495479
2.2994576 -1.0936321 -0.056246702
2.2878091 -1.0720239 -0.054122437
2.2888114 -1.0503669 -0.049020171
2.2926025 -1.0349658 -0.044509515
2.29458 -1.013974 -0.04841008
2.2945313 -0.99034315 -0.053279504
2.2857981 -0.92658025 -0.052906409
2.2820911 -1.1989818 -0.060451549
2.2837043 -1.1840585 -0.056532636
2.2875521 -1.0121291 -0.058867808
2.5239804 -0.73109418 0.30729428
2.5220423 -0.72858667 0.30034232
2.5195577 -0.71445805 0.29384288
2.5095 0.5324446 0.29504743
2.5146446 -0.70866954 0.28508347
2.50577 -0.67184812 0.28044426
2.5032656 -0.65665972 0.28146356
2.5022275 -0.64516282 0.27995139
2.5078192 0.39467603 0.27313691
2.5078192 0.3989116 0.27313691
2.5063348 0.53033477 0.28956521
2.5002205 -0.6679557 0.27172554
2.4990542 -0.65600961 0.27220586
2.5057011 0.39467603 0.26946834
2.5057011 0.3989116 0.26946834
2.4916728 0.22290967 0.25029591
2.353024 0.98099178 0.017531158
2.3605239 1.2398733 0.0085218791
2.3605239 1.2441169 0.0085218791
2.3510251 0.92863137 6.9778558e-05
2.350672 0.93922341 -0.00054183381
2.3405008 0.96534336 0.00034071587
2.3404541 1.0924919 0.0037595786
2.3417058 1.1078799 0.0069275447
2.3399978 1.1223077 0.005469379
2.3452578 1.1621823 8.0448503e-05
2.3463154 1.1720487 0.0019115499
2.3453751 0.92651296 -0.0097160516
2.3362789 0.97167534 -0.0069718589
2.340651 1.1793234 -0.011898451
2.3305097 -1.0339987 -0.040296108
2.3307974 -1.0235305 -0.040464848
2.3195834 -0.99296606 -0.033888035
2.3233242 0.89516747 -0.032408964
2.3249085 0.90467113 -0.02966512
2.3262079 -1.3978255 -0.051127959
2.3226264 -1.3250488 -0.047950625
2.3132787 -1.1772993 -0.048141144
2.3143406 -1.159896 -0.047135033
2.3212926 -1.1449265 -0.054551743
2.3161767 -1.1245406 -0.047289029
2.3160775 -1.1093988 -0.047510814
2.3141503 -1.0915307 -0.05029843
2.3201795 -1.0356611 -0.042641282
2.3219678 -1.0166208 -0.044043701
2.3127422 -1.0022248 -0.044549424
2.3253841 -0.96528 -0.050703585
2.3220983 -0.95345366 -0.055031557
2.3196278 0.89411151 -0.03881127
2.3194814 -1.3978326 -0.062363233
2.3182962 -1.3551623 -0.065116622
2.3168333 -1.3420483 -0.064013511
2.3063831 -1.1942674 -0.060417783
2.3098309 -1.1815609 -0.054279469
2.3099694 -1.1536 -0.056414176
2.3166153 -1.1463952 -0.059777308
2.3169727 -1.1257875 -0.056908756
2.3108296 -1.1069238 -0.05604966
2.309809 -1.0887433 -0.056317173
2.3103409 -1.0714961 -0.058242422
2.3066905 -1.0577418 -0.053218901
2.3076019 -0.99441916 -0.051307052
2.3199775 -0.95769465 -0.058704868
2.3199775 -0.95345366 -0.058704868
2.3123491 -1.3462763 -0.073917001
2.3029931 -1.2802346 -0.080621734
2.3018744 -1.1983322 -0.067560047
2.5791366 -0.24344659 0.38265908
2.5751278 -0.25408977 0.37521628
2.5753224 -0.24840993 0.37588629
2.5335386 -0.73115396 0.28655878
2.5284507 -0.72573769 0.27837172
2.517463 0.41811171 0.26234108
2.3723214 1.0950246 0.0019562601
2.3715031 1.1074152 0.0024136514
2.3708179 1.1225377 0.00035225635
2.3601179 1.2487295 0.0063188085
2.3602042 1.054621 -0.0093305027
2.3615355 1.0671995 -0.0081252893
2.3613577 1.0919534 -0.0054420191
2.3655763 1.106058 -0.0016017406
2.3686848 1.1225377 -0.0033420525
2.3579953 1.2466071 0.0026422404
2.3566759 1.0696707 -0.016142093
2.3430891 -1.4067565 -0.047673814
2.3351102 -1.1615455 -0.042994283
2.3332233 -1.1435575 -0.041887634
2.3336008 -1.124643 -0.042108964
2.3409328 -1.0815365 -0.04640916
2.3409328 -1.0772755 -0.04640916
2.3413641 -1.0476537 -0.046662088
2.3471646 -1.0334445 -0.041069843
2.3436956 -1.0172579 -0.045909081
2.3456769 -0.9216013 -0.049191523
2.3474157 -0.90766078 -0.044092052
2.3495395 -0.89027119 -0.046501812
2.3353202 -1.3946832 -0.057942156
2.3328199 -1.22545 -0.056460697
2.3328199 -1.2211922 -0.056460697
2.3388536 -1.2022445 -0.065009594
2.3284924 -1.1751428 -0.04895696
2.3299725 -1.1599972 -0.048843253
2.3287792 -1.143454 -0.049126249
2.3311229 -1.124643 -0.046400405
2.3354714 -1.0836008 -0.055556253
2.3342175 -1.0749868 -0.057289574
2.3393481 -0.96231502 -0.056081749
2.3306909 -0.90989804 -0.052176885
2.3302858 -1.3908489 -0.067849517
2.3226085 -1.3793437 -0.06928356
2.3183057 -1.3643222 -0.067599975
2.320462 -1.2244872 -0.073864646
2.3255529 -1.2138326 -0.073946856
2.3367164 -1.2022445 -0.068711154
2.3236451 -0.95599163 -0.065851592
2.3235602 -0.94901168 -0.069109775
2.3264155 -0.915865 -0.062553398
2.3245337 -1.3901042 -0.081311867
2.3178358 -1.3773352 -0.077246912
2.3144867 -1.3667139 -0.075214371
2.3183346 -1.2244872 -0.07754954
2.3183346 -1.2159784 -0.07754954
2.3949203 1.1109943 -0.0032336526
2.3938994 1.1190939 -0.002668831
2.3816464 0.9172048 -0.025391258
2.3816464 0.92150724 -0.025391258
2.3826177 0.98775929 -0.017708996
2.3695993 0.91527969 -0.032812688
2.3674085 0.92284602 -0.029635262
2.3522797 -1.4088675 -0.049755372
2.3627644 -1.3949957 -0.056719534
2.3624949 -1.3819207 -0.056561753
2.3640018 -1.2423875 -0.054951292
2.3550756 -1.2329693 -0.052712135
2.3591449 -1.1808214 -0.051280133
2.3570271 -1.1620378 -0.048746627
2.3563602 -1.1438005 -0.050486855
2.3575261 -1.1315378 -0.051167946
2.3564594 -1.0805954 -0.055515289
2.3564594 -1.0763042 -0.055515289
2.3588033 -1.0485739 -0.045955986
2.3611162 -1.0330217 -0.041350093
2.3608966 -1.0198709 -0.048163291
2.354512 -0.993415 -0.051888801
2.3537118 -0.98333436 -0.051774416
2.3484805 -0.96766931 -0.050835758
2.3606789 0.91249686 -0.040107325
2.3611465 0.92176098 -0.038397793
2.3465352 -1.3923224 -0.059203848
2.3515809 -1.3758172 -0.063931517
2.3486412 -1.359663 -0.067271061
2.3455827 -1.3476677 -0.067354202
2.3513107 -1.2502186 -0.068432406
2.3475578 -1.2334554 -0.061647348
2.3511841 -1.2184061 -0.070352122
2.3422809 -1.194398 -0.06207335
2.3497894 -1.1811615 -0.056568492
2.3543136 -1.0805954 -0.059232056
2.3543136 -1.0763042 -0.059232056
2.3464997 -0.95940489 -0.059599306
2.3422906 -0.95158899 -0.067056343
2.3467915 -0.92859137 -0.06226027
2.3420815 -1.3701141 -0.071918242
2.3403645 -1.3619137 -0.070891909
2.3427253 -1.3448107 -0.072303131
2.3420234 -1.2313625 -0.076428026
2.3465512 -1.2205907 -0.077926733
2.3382187 -0.95075238 -0.069609143
2.3425107 -0.9290446 -0.072174795
2.4211075 1.3079571 0.011957443
2.4099138 1.292908 0.00081915059
2.4118819 1.302883 0.0027553269
2.402689 0.95859563 -0.014944273
2.3950188 1.099998 -0.0069793458
2.3987277 1.2331271 -0.010754864
2.4004915 1.2466025 -0.010694805
2.4054673 1.29222 -0.0041326559
2.4015186 1.3016813 -0.0085276142
2.3994453 0.95859563 -0.020562338
2.3874962 1.2339154 -0.018258762
2.38941 1.2470696 -0.014944345
2.3843081 -1.3699863 -0.046779975
2.3839285 -1.3589455 -0.046561696
2.3860416 -1.2715188 -0.047777336
2.3796489 -1.2571002 -0.044099625
2.3858249 -1.0463791 -0.047652621
2.3849583 -1.0351627 -0.047154002
2.3838744 -1.0238522 -0.046530548
2.376308 -1.4252355 -0.057135738
2.3741918 -1.4110279 -0.057710912
2.380091 -1.3945119 -0.056833278
2.3747096 -1.3742572 -0.058870379
2.3764656 -1.3588517 -0.056390289
2.3731306 -1.3462783 -0.058138978
2.3814943 -1.2812809 -0.060152687
2.3741217 -1.2684264 -0.055856872
2.3716991 -1.2524728 -0.053619497
2.3737106 -1.2376699 -0.054385316
2.3750052 -1.2237914 -0.066392183
2.3825018 -1.1605271 -0.060740564
2.3821418 -1.151675 -0.060531054
2.3823578 -1.0720749 -0.061074149
2.3843102 -1.0575032 -0.051775526
2.3764448 -1.030068 -0.047232937
2.3774459 -1.0148333 -0.055798728
2.3786802 -0.89553493 -0.063527055
2.3665936 -1.3735446 -0.066461787
2.3640079 -1.3605067 -0.067083314
2.3663781 -1.3496811 -0.066334896
2.3618128 -1.2673564 -0.07282526
2.3624465 -1.2539232 -0.065269858
2.3717594 -1.2281184 -0.072014049
2.3695989 -1.2202519 -0.074506015
2.4339385 1.0575067 0.0099671967
2.4349315 1.0683343 0.011901235
2.4231713 0.95227557 -0.0039679017
2.423171 0.96096492 -0.0039677825
2.4277697 1.0037827 -0.0040027159
2.4277697 1.0124855 -0.0040027159
2.4286273 1.0553904 0.00048274227
2.4240584 1.0965993 -0.0069306735
2.424278 1.1075773 -0.0070508593
2.4207966 1.0965993 -0.012580249
2.4174716 1.1056279 -0.011739549
2.4164166 1.1161909 -0.010166586
2.414036 1.2273359 -0.016290266
2.3993356 -1.3402838 -0.053750291
2.4006262 -1.324036 -0.054014891
2.3990204 -1.3065337 -0.052734017
2.3975987 -1.2876981 -0.049409412
2.3923991 -1.2695526 -0.046432178
2.3903754 -1.254458 -0.050270557
2.4044604 -1.2012378 -0.058373667
2.4001267 -1.135792 -0.05588045
2.4012139 -1.1250848 -0.054830633
2.4005721 -1.0473886 -0.048609097
2.3989446 -1.0357709 -0.047678228
2.3965108 -1.016874 -0.047357891
2.3994071 -0.99955827 -0.048337601
2.4060204 -0.98063093 -0.05423791
2.407491 -0.9623152 -0.054074649
2.407896 -0.94388396 -0.052798122
2.4075165 -0.93063736 -0.052581031
2.3944798 -1.3412182 -0.060160808
2.3965714 -1.32578 -0.061371118
2.3928871 -1.3051484 -0.062169977
2.3903842 -1.2913371 -0.061977118
2.4022787 -1.2012378 -0.062152725
2.3962109 -1.1376415 -0.061162516
2.3957143 -1.1236056 -0.06423074
2.3957541 -1.1129085 -0.068453304
2.3902833 -1.0854753 -0.057229575
2.3985982 -1.0751354 -0.060027253
2.390805 -1.0149878 -0.055526398
2.390379 -0.99839753 -0.060297281
2.3999329 -0.98035443 -0.063316137
2.4015512 -0.96635801 -0.063412286
2.4483926 0.95130497 -0.0027824589
2.4466321 0.96370602 -0.0018314555
2.4549937 1.0133317 -0.0063485187
2.4514508 1.0602031 0.0055142893
2.4450917 1.2342504 -0.00099925371
2.4455321 1.2432355 -0.0012370956
2.4411652 0.93440795 -0.018800303
2.4432151 0.94567549 -0.013499942
2.4434874 0.96070957 -0.0088406969
2.4442313 1.0039635 -0.010489793
2.4455831 1.0186793 -0.0087320218
2.4375951 1.2353419 -0.0093591027
2.4388709 1.2493711 -0.01199648
2.4394972 1.2687027 -0.013889763
2.4271564 -1.1930678 -0.031063637
2.4249728 -1.0499365 -0.02984594
2.4249728 -1.0411987 -0.02984594
2.4356179 0.92675668 -0.029758111
2.4389732 0.9387911 -0.022596745
2.4295564 1.2361375 -0.017407464
2.4315274 1.2481253 -0.018493563
2.4192789 -1.2066485 -0.046707459
2.4218552 -1.1939602 -0.041206699
2.4199317 -1.1851141 -0.047077138
2.4199469 -1.0527426 -0.038925603
2.4194849 -1.0406252 -0.04012816
2.4274726 -0.99585599 -0.051348649
2.4273276 -0.98701209 -0.05126651
2.4247117 -1.3421696 -0.060897078
2.4140351 -1.3045824 -0.05379013
2.4059772 -1.2566187 -0.059246313
2.4194124 -1.2267486 -0.066975519
2.4192917 -1.2145402 -0.061850876
2.4146214 -1.1955858 -0.056141447
2.4164126 -1.1861333 -0.057672203
2.4092278 -1.1185108 -0.061116315
2.4156055 -1.1074393 -0.058540639
2.4163439 -1.0938193 -0.06141533
2.4144833 -1.0523224 -0.049013715
2.4149613 -1.0350602 -0.049285602
2.4162219 -0.9940908 -0.050002381
2.4210029 -0.9808358 -0.052721009
2.4224155 -0.96172154 -0.053524293
2.4207313 -0.94348222 -0.052566621
2.415391 -0.92545211 -0.051541869
2.4127946 -0.91268951 -0.053081576
2.415082 -1.2363648 -0.073350392
2.4077873 -1.1784945 -0.067861125
2.4074628 -1.1673869 -0.067673303
2.4070413 -1.1185108 -0.064903341
2.4067843 -1.106975 -0.066919915
2.4059453 -0.90959853 -0.067302011
2.4773486 1.2343132 0.0038003253
2.464608 0.94399887 -0.0031962397
2.4631367 0.95822799 -0.0032445772
2.4680934 1.0163302 -0.007783941
2.4653356 1.0288959 -0.01193538
2.4631367 1.0594733 -0.0032445772
2.4659975 1.0702748 0.0027100681
2.463989 1.236528 -0.0019106603
2.4648283 1.2507938 -0.0058148624
2.4635329 1.26682 -0.0099574728
2.4611549 1.280301 -0.0096768485
2.4536598 0.90643632 -0.025658464
2.4527829 0.93032146 -0.025177108
2.455215 0.94403458 -0.011464795
2.4629092 1.0332104 -0.015637893
2.4549177 1.1307458 -0.017979722
2.4558733 1.2572039 -0.014324882
2.4584477 1.2682716 -0.015365321
2.4589522 1.280301 -0.013491759
2.4492521 0.89652061 -0.033292629
2.448591 0.90863979 -0.034437753
2.4504893 0.92693722 -0.029949164
2.4427178 -1.322943 -0.059983917
2.4412494 -1.3088453 -0.059152201
2.4410319 -1.2270142 -0.05902905
2.4410319 -1.2225976 -0.05902905
2.4423816 -1.0707382 -0.052691761
2.4458699 -1.0466266 -0.054149635
2.4432075 -1.0380815 -0.060261235
2.4398899 -0.98029482 -0.058382172
2.4434838 -0.96095675 -0.057032209
2.4412427 -0.94484842 -0.052628662
2.4399533 -0.92656875 -0.052397337
2.4333231 -1.3238339 -0.062255949
2.4390407 -1.3088453 -0.062977977
2.4329336 -1.2461528 -0.073055565
2.4348478 -1.2349641 -0.069740206
2.4388235 -1.2225976 -0.062854461
2.4235296 -1.1871687 -0.069344141
2.4416485 -0.9720459 -0.064460918
2.4416485 -0.96762389 -0.064460918
2.4295559 -0.90870982 -0.066448368
2.4211128 -0.90549034 -0.073029995
2.4967263 1.2386334 0.0039348411
2.4918427 1.2522753 -0.0026901565
2.4962497 1.2613575 -0.0083903614
2.487402 1.0223957 -0.008714796
2.4838834 1.0343213 -0.015225474
2.4805567 1.2547264 -0.0075711021
2.4809299 1.2702494 -0.010996676
2.4778988 1.2827485 -0.01200823
2.4652774 0.91763794 -0.032035269
2.4674926 0.92428166 -0.028199108
2.4778461 1.0448009 -0.026265854
2.4673543 1.1453023 -0.026437787
2.4627259 -1.2475203 -0.049203452
2.4651523 -1.1039922 -0.052251045
2.4677274 -1.0899316 -0.050291389
2.4635077 -0.93980247 -0.049300041
2.4630625 0.91763794 -0.035871547
2.4556298 -1.3563858 -0.064743847
2.4478478 -1.3414 -0.062889755
2.4479585 -1.3224696 -0.057865445
2.4482486 -1.3137841 -0.058029238
2.4568927 -1.2622346 -0.06205751
2.4567671 -1.2529149 -0.059649248
2.4587739 -1.1076903 -0.059715942
2.4598811 -1.0916032 -0.061842818
2.4611838 -0.95655823 -0.055124845
2.4595709 -0.9273324 -0.055918388
2.4516454 -1.3560032 -0.070145547
2.4456327 -1.3414 -0.066726521
2.4492071 -1.2603966 -0.073868334
2.4494343 -1.2540615 -0.072975256
2.4402473 -1.1921507 -0.075554445
2.4393644 -1.1846939 -0.076750219
2.520236 1.0407929 -0.00084444182
2.520236 1.0475168 -0.00084444182
2.5104802 1.2508063 0.0042585386
2.5059879 1.0360945 -0.0105228
2.5135341 1.0531188 -0.0088165021
2.5106399 1.068876 -0.010607736
2.5057607 1.0825818 -0.010916487
2.5049613 1.2533448 -0.00090142811
2.5025477 1.2696117 -0.0081245545
2.5042152 1.2806597 -0.010092622
2.500118 1.0401793 -0.017189533
2.5017314 1.0546812 -0.021853492
2.5015028 1.0695207 -0.020040371
2.4988339 1.1785791 -0.022413421
2.4962287 1.2714587 -0.013426239
2.4971113 1.2808555 -0.01389733
2.4930069 1.0560572 -0.034505259
2.4802461 -0.93844074 -0.058107167
2.4802461 -0.93396813 -0.058107167
2.470458 -1.3554906 -0.070560306
2.470458 -1.3465528 -0.070560306
2.4759057 -1.2837076 -0.071347214
2.4790437 -1.2756746 -0.067689747
2.4724278 -0.92413354 -0.070815563
2.4708641 -0.91590637 -0.073356882
2.4675097 -0.92037815 -0.079166703
2.4675097 -0.91590637 -0.079166703
2.5432231 1.0063279 0.0074711181
2.5428338 1.0174353 0.0076715299
2.537586 1.0063279 -0.0022925101
2.5387173 1.0157913 0.00029224984
2.5395448 1.0332543 0.0017662391
2.5237269 1.2495379 0.00070241146
2.5295477 1.2698817 -0.0057152617
2.5189457 1.1830155 -0.017911807
2.5198238 1.1904783 -0.014557704
2.5272973 1.2698817 -0.0096131088
2.5250468 1.2811322 -0.013510949
2.5155737 1.1830153 -0.023751756
2.510572 1.1894971 -0.021082086
2.510685 -1.1907731 -0.054384798
2.513272 -1.1841673 -0.050654624
2.5072346 -1.0730853 -0.047361091
2.4996543 -1.2918503 -0.071490206
2.4865525 -1.2756939 -0.064184263
2.4927444 -1.3018019 -0.077958927
2.4827504 -1.2911571 -0.069768928
2.5631552 1.0775719 0.012494656
2.5655172 1.0894589 0.013835632
2.5650151 1.1033546 0.011549362
2.5536418 1.0071141 -0.0029828516
2.5543702 1.0603331 0.0042784084
2.5553443 1.0720869 0.003779138
2.5569313 1.0886558 0.0029647099
2.5589068 1.1054243 0.001949086
2.5528545 0.90469092 -0.015345405
2.5513749 1.0071141 -0.0069089397
2.5487094 1.0603331 -0.0055259527
2.5479844 1.0740989 -0.007698731
2.5455878 1.0882607 -0.0079826517
2.5431368 1.09905 -0.0051782955
2.5419254 1.1215266 -0.012918242
2.5493369 1.1975977 -0.021188488
2.549669 1.2091188 -0.021362884
2.5464451 1.270877 -0.0094476985
2.5487833 1.285805 -0.016797585
2.5458403 1.30344 -0.014245081
2.5391021 1.3172683 -0.0081664324
2.5446837 0.95002389 -0.028997624
2.5446837 0.95456547 -0.028997624
2.5362344 1.1226532 -0.021966225
2.5335 1.1815581 -0.027168561
2.5381031 1.1908698 -0.020396061
2.5473974 1.2091188 -0.025297295
2.5260713 -1.1970202 -0.047834944
2.5251379 -1.1790575 -0.048101567
2.5337317 -1.117134 -0.051466305
2.5347035 -1.1034243 -0.049409021
2.5337317 -0.95807481 -0.051466305
2.5288966 -0.94549233 -0.046278734
2.5241234 -0.92954159 -0.04185877
2.5240548 0.93320924 -0.046228111
2.5240548 0.93999845 -0.046228111
2.5283904 1.1792306 -0.03571843
2.5152557 -1.3044908 -0.059467793
2.5222569 -1.2007773 -0.055041809
2.5210643 -1.1767383 -0.054907124
2.5268061 -1.0995004 -0.061661541
2.5266173 -1.0921046 -0.062002353
2.530762 -0.95825106 -0.057609819
2.5251665 -0.94459993 -0.059730195
2.5188699 -0.92883414 -0.058136724
2.5084679 -1.315802 -0.071224339
2.5091867 -1.3049297 -0.069633
2.5070834 -1.2879018 -0.070455439
2.5016799 -1.315802 -0.082980879
2.5016799 -1.3112775 -0.082980879
2.5754747 1.1048064 0.011333073
2.569309 1.00406 -0.0085125845
2.57181 1.016435 -0.00065687415
2.566591 1.0411671 -0.0045539336
2.566591 1.0479965 -0.0045539336
2.5656748 1.3281225 -0.006640322
2.5611789 0.93560356 -0.022260444
2.5611789 0.94016343 -0.022260444
2.5644805 1.0012013 -0.013708579
2.561657 1.0098234 -0.018399151
2.5610943 1.1411936 -0.021573745
2.5544903 1.1671997 -0.01876189
2.5516627 1.1760238 -0.022409875
2.5658004 1.288185 -0.015672535
2.5669093 1.3020433 -0.019251119
2.5622592 1.3281225 -0.01255607
2.5553305 1.1430082 -0.032056548
2.5493891 1.1692046 -0.026347551
2.5493891 1.1760238 -0.026347551
2.5276248 -1.3226637 -0.066257209
2.5298054 -1.3135158 -0.06226657
2.5306933 -0.96086675 -0.064827688
2.5290229 -0.94845521 -0.069621146
2.522064 -1.3272814 -0.076174676
2.5260456 -0.95773715 -0.075778544
2.5245454 -0.94413066 -0.080155052
2.5269206 -0.93303412 -0.076262683
2.5879276 1.0496722 -9.6786076e-05
2.5992463 1.0979732 0.0070073875
2.5993581 1.1049094 0.0069511547
2.5803225 0.91743553 -0.016769152
2.5854363 0.92855555 -0.019411614
2.5905502 0.94199586 -0.02205397
2.5831552 1.007899 -0.0053635873
2.5831552 1.0124767 -0.0053635873
2.5836008 1.040132 -0.0055915285
2.5830572 1.0535084 -0.0073111979
2.5809896 1.1675293 -0.017113846
2.5809896 1.1744058 -0.017113846
2.5780306 0.91743553 -0.020738702
2.5741348 0.9285785 -0.027557753
2.5882487 0.94199586 -0.026040167
2.5744026 1.1634258 -0.027700612
2.5785861 1.1766443 -0.021026887
2.5763674 1.2024596 -0.027619403
2.5763674 1.2116323 -0.027619395
2.567946 -1.1051482 -0.048454855
2.5690289 1.1627066 -0.036704361
2.5690844 1.1741916 -0.036733642
2.5573542 -1.184589 -0.063383549
2.5522358 -1.1829876 -0.071915194
2.6272578 1.168669 0.0032757246
2.6265357 1.1785501 0.0027744651
2.6049259 1.1279273 -0.0061546019
2.6236696 1.1686163 -0.0026890964
2.6199911 1.1809864 -0.0073108766
2.6179178 1.1912488 -0.010151157
2.6043351 0.93573141 -0.029176822
2.6064272 0.94490248 -0.025053691
2.6051826 1.1838216 -0.019209793
2.603339 1.1914786 -0.019302944
2.6020207 0.93573141 -0.033185471
2.6013544 1.2177199 -0.032839812
2.6009533 1.2302438 -0.034368034
2.5677629 -1.1817003 -0.066520765
2.6389978 1.0562221 -0.0041399938
2.6351914 1.0676962 -0.0074324585
2.6200652 1.0217084 -0.016431883
2.6212926 1.033824 -0.017055769
2.6254132 1.0542099 -0.017068153
2.6276443 1.0698782 -0.012470651
2.6159158 1.0167931 -0.022118669
2.6219809 1.0490229 -0.02261325
2.6052666 -1.1400945 -0.050562911
2.6006181 -1.1424183 -0.058613423
2.6496243 1.0849576 -0.01223322
2.6312399 0.95819509 -0.0325757
2.6729252 1.0720279 -0.006374836
2.6684179 1.075209 -0.013581504
2.6674311 1.0853685 -0.015890609
2.6666048 1.1492015 -0.022487691
2.6658132 1.1609201 -0.022792405
2.6633878 1.1483819 -0.027892843
2.6598754 1.1621674 -0.032267962
3.2025943 -0.07602796 0.7940172
3.2026608 -0.064013466 0.79400748
3.2037742 -0.045828927 0.79448944
3.2006686 -0.025528833 0.79880637
3.1957817 -0.076037884 0.78146821
3.1952465 -0.064024359 0.78019083
3.1973822 -0.049606293 0.78349018
3.2259173 0.00087834289 0.79741472
3.2217762 -0.039075963 0.78324246
3.2132788 -0.019638961 0.78677416
3.2143514 -0.0087768016 0.79001582
3.2224219 0.00087838084 0.79111058
3.2026515 -0.078711689 0.77361733
3.2042551 -0.063275553 0.76946628
3.2139382 -0.046800889 0.77012867
3.1999457 -0.076352045 0.76493108
3.2001224 -0.06670206 0.76490349
3.235229 0.0057350919 0.79379314
3.2241075 -0.027806466 0.78061408
3.2235541 -0.0088238642 0.77498901
3.2304831 0.0036608635 0.77982318
3.2239897 -0.074579149 0.75657725
3.2209911 -0.0623479 0.75705016
3.2171757 -0.041582324 0.76452464
3.2173765 -0.025806298 0.76449764
3.2184126 -0.0088256709 0.76496202
3.2183988 0.0029611487 0.7653212
3.2191572 -0.074609578 0.74583292
3.216296 -0.062376421 0.74629372
3.2136059 -0.044908378 0.74854022
3.2146366 -0.026348153 0.74671113
3.2088442 -0.073764622 0.73059511
3.2075496 -0.062395509 0.72927016
3.2073903 -0.045355719 0.72929597
3.211658 -0.028839255 0.72996938
3.1999257 -0.076307841 0.71568447
3.1990299 -0.062395163 0.71451437
3.1994653 -0.049184289 0.71510166
3.1915531 -0.072126269 0.70189685
3.1915526 -0.062391598 0.70189697
3.19277 -0.050223246 0.70400482
3.230577 -0.0084509989 0.73998809
3.2301698 0.00088897202 0.73478281
3.2131298 -0.021066749 0.72601849
3.215775 -0.0093644438 0.72650069
3.2226002 0.00299083 0.72110063
3.2160625 -0.041095022 0.7075634
3.2135935 -0.026992958 0.71292245
3.2126424 -0.0082762325 0.7127378
3.2221708 0.0082507655 0.70817888
3.2090814 -0.062850453 0.68942505
3.2121439 -0.050602905 0.69356269
3.2306082 -0.039782777 0.69379348
3.2309041 -0.026214421 0.69726479
3.2298207 -0.0096598566 0.69846612
3.2246571 0.007289703 0.69508624
3.2237904 -0.062630817 0.67792308
3.2249415 -0.047033243 0.6801585
3.2349555 -0.02051696 0.68790787
3.2352414 -0.0089884847 0.68706882
3.2374043 0.0083226822 0.6843155
3.2398853 0.022353888 0.68544626
3.2252855 -0.073216744 0.67232579
3.2247641 -0.068264261 0.67242241
3.2241728 -0.038600828 0.67489815
3.2342505 -0.027810341 0.67635387
3.2345171 -0.0085587464 0.67363304
3.2347729 0.005300534 0.67531401
3.2367582 0.023180284 0.6796968
3.2208645 -0.076935455 0.66366869
3.2195637 -0.063344367 0.66154009
3.2209454 -0.046065826 0.66127789
3.2140326 -0.060910776 0.64833587
3.216454 -0.047858998 0.64364547
3.2129736 -0.048668075 0.63183534
3.25934 0.023368407 0.670811
3.2438858 -0.079585172 0.67174268
3.2430243 -0.024588915 0.66367579
3.2403347 -0.014010459 0.6623925
3.2465827 0.011477488 0.66658914
3.2568438 0.023368407 0.66648775
3.2439432 -0.039051954 0.64014393
3.2471359 -0.028217331 0.64834005
3.2393527 -0.006554462 0.6601916
3.2396131 0.00090278982 0.66014266
3.2384913 -0.039067209 0.62836754
3.2382443 -0.030073781 0.62777323
3.2219014 -0.063408516 0.61737567
3.2244759 -0.046954036 0.61702555
3.226836 -0.025975596 0.61535931
3.2193091 -0.0090507753 0.6185596
3.2198024 0.0071249381 0.61966366
3.2191026 -0.073929273 0.60411978
3.2197638 -0.063429654 0.60209823
3.2227547 -0.048037507 0.60384542
3.22525 -0.031572867 0.60526723
3.2131295 -0.006562179 0.6077733
