# .PCD v0.7 - Point Cloud Data file format
VERSION 0.7
FIELDS x y z
SIZE 4 4 4
TYPE F F F
COUNT 1 1 1
WIDTH 1440
HEIGHT 1
VIEWPOINT 0 0 0 1 0 0 0
POINTS 1440
DATA ascii
1.7754532 0.19081111 0.1943801
1.7749705 0.18294968 0.19450887
1.7713112 0.14827915 0.1959684
1.7733003 0.13746324 0.19640671
1.7691952 0.12116018 0.19892266
1.7703204 0.10291127 0.1992629
1.7731724 0.083270386 0.20115094
1.7770048 0.070459194 0.1973293
1.7679762 0.042304512 0.19585742
1.772018 0.033052087 0.19332397
1.7793854 0.0050326549 0.18848988
1.776364 -0.007460475 0.19000766
1.7746423 -0.024624132 0.19067784
1.7762721 -0.040268715 0.18942544
1.7751737 -0.077697054 0.18933995
1.7728015 -0.091608725 0.19045205
1.7797618 -0.16552688 0.18677518
1.7755572 -0.22824609 0.18890871
1.7748247 -0.24053672 0.19090149
1.7755364 -0.25805217 0.1935474
1.7817668 -0.26908022 0.19173303
1.7729183 -0.29881844 0.18757319
1.7732722 -0.31079435 0.1890227
1.7651322 -0.3238045 0.19041967
1.7795584 -0.33925188 0.18171786
1.7731529 -0.36735967 0.19211009
1.7773159 -0.38059971 0.19137813
1.7741678 -0.40743712 0.18443824
1.7777748 -0.42048469 0.18977962
1.7764721 -0.43672475 0.18806209
1.7725905 -0.45454127 0.19230881
1.7750891 -0.47072342 0.19166435
1.7726427 -0.493321 0.18883625
1.7694132 -0.50922817 0.18852802
1.7823966 -0.53161019 0.18515716
1.7805258 -0.54608196 0.18340649
1.7769246 -0.56173831 0.18323168
1.7769544 -0.58518815 0.1843992
1.7802883 -0.59780836 0.18711706
1.7722913 -0.61841488 0.18744054
1.7681676 -0.63178301 0.18448019
1.7778898 -0.67554724 0.18390524
1.7773833 -0.68424582 0.1840293
1.7678938 -0.72667152 0.18100473
1.7642907 0.24261817 0.19430001
1.765704 0.22889006 0.19480512
1.7726671 0.20857966 0.18860701
1.7692448 0.19217087 0.18573327
1.764827 0.17652622 0.18716329
1.7653931 0.15653521 0.18812485
1.7660258 0.13719538 0.1934406
1.7657973 0.12392629 0.19421662
1.7723644 0.064153597 0.18333589
1.7694676 0.028309485 0.18790996
1.7712588 0.011561151 0.18461694
1.7692653 -0.0046156445 0.18337943
1.763904 -0.016660046 0.19349822
1.7737703 -0.046111815 0.18498971
1.7701747 -0.059672471 0.18281005
1.7702011 -0.075530425 0.1873256
1.7662137 -0.096555859 0.18616873
1.768503 -0.11491496 0.18212359
1.7713107 -0.1309042 0.17998238
1.7712765 -0.15147696 0.17627111
1.7740625 -0.16638657 0.18040173
1.7637391 -0.18864375 0.18274684
1.7621547 -0.20250912 0.18238297
1.7681445 -0.22407077 0.17852768
1.7651473 -0.23861532 0.18028677
1.7656975 -0.25683501 0.18329982
1.7661227 -0.27589002 0.175153
1.7650638 -0.29464531 0.17778771
1.7631731 -0.31123841 0.18311188
1.7726411 -0.34908059 0.18014252
1.7709724 -0.3879236 0.17752941
1.7688909 -0.40176213 0.17831464
1.7696387 -0.42057598 0.17733604
1.7672198 -0.43494776 0.18050809
1.7654477 -0.50884849 0.18305892
1.7766978 -0.53587598 0.17595758
1.7723669 -0.54677111 0.1768351
1.7669314 -0.56419641 0.17511469
1.7668468 -0.58038408 0.1746593
1.7655845 -0.63774347 0.18048152
1.7649916 -0.65355742 0.17692509
1.7646021 -0.67963338 0.16763113
1.7651166 -0.68968183 0.16762479
1.7681146 -0.70664382 0.17361253
1.7657384 -0.72528911 0.17725693
1.7622757 -0.0023961153 0.17308235
1.7552192 -0.28778568 0.17177573
1.6762515 0.28326899 0.0085458057
1.6692407 0.43120253 -0.010334863
1.6702695 0.28336278 -0.0014005075
1.6692539 -0.86684525 -0.027062191
1.6642344 -0.88790983 -0.032307275
1.6618412 -0.90174454 -0.028666331
1.6635712 -0.91373378 -0.028947908
1.6583483 1.05401 -0.013249257
1.6570904 1.042205 -0.012498607
1.6560524 1.0321226 -0.011885704
1.6608411 0.92543024 -0.015717532
1.659682 0.91534323 -0.015012167
1.6590452 0.90402085 -0.014736139
1.6596566 0.85863942 -0.014138669
1.6571051 0.84832472 -0.012845891
1.6571908 0.82266361 -0.016024137
1.6570401 0.8131389 -0.0162216
1.6602579 0.76818365 -0.019269761
1.6532985 0.75315338 -0.013566958
1.6526237 0.73751783 -0.011017919
1.6552089 0.71665388 -0.012945662
1.6597772 0.69910729 -0.015747789
1.6636124 0.68326259 -0.016689513
1.6612159 0.66607922 -0.020096853
1.6634376 0.64533573 -0.019587494
1.6582885 0.630723 -0.021354575
1.6573243 0.60819352 -0.019273434
1.6563764 0.59493732 -0.018227786
1.6543094 0.57455909 -0.019351752
1.6507537 0.55422497 -0.018268924
1.6564169 0.53822583 -0.018614579
1.6561847 0.51883298 -0.012734632
1.662481 0.50215137 -0.019824969
1.6624706 0.4855845 -0.023253169
1.6616693 0.47540182 -0.025036957
1.6621116 0.44647926 -0.020714901
1.6627644 0.42934203 -0.019352339
1.6589335 0.41258988 -0.018748967
1.6598698 0.39614093 -0.023219714
1.6543242 0.37765115 -0.021432243
1.6605326 0.35814077 -0.017045887
1.6589088 0.34006307 -0.012152769
1.6578444 0.3213321 -0.01854939
1.6556174 0.30346635 -0.018207235
1.6584004 0.29061192 -0.017415574
1.6686517 -0.87279207 -0.038912829
1.6645911 -0.88313967 -0.038387641
1.653864 -0.90213948 -0.034263365
1.6517943 1.0533835 -0.019822637
1.6502216 1.0437555 -0.018405011
1.6478835 1.0230798 -0.016117763
1.6458697 1.0076988 -0.018927027
1.6467716 0.98910546 -0.021658542
1.6460403 0.9686259 -0.017205982
1.6489694 0.95344949 -0.023242265
1.6513696 0.93475378 -0.019918516
1.6540866 0.91516018 -0.022424599
1.6518049 0.89918917 -0.023404984
1.653615 0.88260347 -0.025330279
1.651494 0.8617484 -0.023094194
1.6502534 0.84451735 -0.017777972
1.6529762 0.83010149 -0.018819908
1.6551241 0.80809325 -0.023267372
1.6524152 0.79284775 -0.02209018
1.6491959 0.7691499 -0.020565376
1.6451875 0.75605345 -0.019911256
1.6483153 0.71416909 -0.025156073
1.6505653 0.70111632 -0.024056941
1.6547071 0.68279898 -0.023938173
1.6505284 0.66311496 -0.026230348
1.6508453 0.64766985 -0.027669897
1.6445848 0.63376647 -0.021283766
1.6451757 0.60172755 -0.019457873
1.6461221 0.59190696 -0.025114754
1.6464869 0.57413995 -0.02564482
1.6463323 0.55867296 -0.022602767
1.6470773 0.54038388 -0.022124127
1.6501001 0.5020442 -0.021351699
1.6556259 0.48458624 -0.026552694
1.6512842 0.46621355 -0.025055882
1.6538107 0.44837475 -0.025836676
1.6508828 0.43131855 -0.02784678
1.6503208 0.39323199 -0.028223043
1.6506116 0.38270333 -0.025988849
1.6461208 0.31505248 -0.025723757
1.6483467 0.30291772 -0.025759431
1.651575 0.29250991 -0.0265419
1.6379349 1.0114188 -0.025262659
1.6388277 0.9530493 -0.02709814
1.6386194 0.57431793 -0.034230467
1.8026723 0.1910661 0.20044671
1.8016776 0.17990203 0.2007964
1.7991751 0.14023612 0.20145161
1.8027024 0.025224373 0.19903055
1.801401 0.017320981 0.19961651
1.7997111 -0.096821174 0.19816576
1.7956525 -0.1105579 0.19920073
1.7947537 -0.46154785 0.19591461
1.7983282 -0.47463012 0.19647606
1.8006848 -0.48985633 0.18973805
1.7972531 -0.53498548 0.18945704
1.7981821 -0.54473597 0.18873933
1.7962515 -0.58698177 0.19046581
1.7957122 -0.59956068 0.19072564
1.7991083 -0.61409789 0.18867989
1.7919785 -0.63988709 0.19042541
1.7972044 -0.65454382 0.18716724
1.7969079 -0.67274487 0.19185692
1.7978839 -0.68764257 0.19464731
1.7860899 0.24103011 0.19279088
1.7847196 0.22935612 0.19290765
1.7882301 0.20979515 0.18912992
1.7959942 0.19281469 0.19305101
1.7937621 0.17492625 0.19107942
1.7903011 0.15536588 0.19264087
1.7857488 0.13797604 0.20004165
1.7885776 0.1210245 0.19649494
1.7897602 0.10234167 0.19342038
1.7875624 0.087336473 0.19765818
1.785875 0.064532146 0.19311953
1.7860649 0.045408983 0.18902187
1.7919354 0.029040914 0.19091086
1.7870213 0.012970109 0.19353843
1.7844654 -0.0046221865 0.19126293
1.7876339 -0.023313455 0.18858644
1.7913116 -0.04204879 0.18645723
1.7902296 -0.058963507 0.18589705
1.7896686 -0.079740614 0.18764809
1.7880906 -0.095896453 0.19155335
1.7882228 -0.11283861 0.19013911
1.7911897 -0.13075596 0.18570215
1.795285 -0.14788446 0.18122156
1.7861265 -0.16672173 0.18514842
1.7886842 -0.18579157 0.18566816
1.7896533 -0.20406468 0.18754527
1.7876691 -0.22030701 0.18576156
1.7984216 -0.23976882 0.18543637
1.7984828 -0.25686795 0.19052175
1.7939762 -0.29546309 0.18041883
1.7949908 -0.31208259 0.18491687
1.7915864 -0.32947096 0.18219008
1.7923933 -0.34705561 0.1831954
1.7900341 -0.36311424 0.18040991
1.7930537 -0.39135662 0.18014054
1.7877707 -0.40304425 0.17988986
1.7884014 -0.41237947 0.18784782
1.7934147 -0.44110653 0.18694915
1.7953482 -0.45352069 0.18306254
1.7878802 -0.4767417 0.18479873
1.7941632 -0.48913836 0.18272573
1.7916503 -0.50906366 0.18410783
1.7925115 -0.52731913 0.18507454
1.7967567 -0.54738837 0.1852722
1.7973385 -0.55941379 0.18240745
1.792174 -0.58483577 0.18217257
1.7919935 -0.60455531 0.1856817
1.7910231 -0.61831564 0.18597044
1.7873237 -0.63724422 0.18346097
1.7863554 -0.65359098 0.18073839
1.7865262 -0.66837144 0.18035141
1.7832348 -0.69483566 0.17579408
1.7844954 -0.70527714 0.17356317
1.7874717 -0.72581232 0.17143507
1.7868338 -0.73779273 0.17339019
1.7802052 0.22450367 0.18863995
1.7837052 0.21083952 0.18632878
1.7841071 0.19990183 0.18588196
1.7865183 0.17201252 0.18150294
1.7820324 0.15898003 0.18403122
1.7790586 0.061519183 0.18433873
1.7787026 0.053674653 0.1843953
1.7787933 0.023877423 0.18557811
1.7785797 0.019178027 0.18561201
1.7853869 -0.056209207 0.17743976
1.7794552 -0.10352374 0.18151398
1.7787848 -0.10923 0.18119174
1.7833221 -0.14839511 0.17456646
1.7842149 -0.18655255 0.17833096
1.7830617 -0.20374858 0.17685422
1.7805207 -0.21803506 0.17867103
1.7782855 -0.27161077 0.17652205
1.7875072 -0.28996873 0.17075719
1.7850848 -0.3973923 0.17191687
1.7803227 -0.65458149 0.17153808
1.7796 -0.67240012 0.16919695
1.7786638 -0.68890142 0.16821605
1.782196 -0.70615506 0.16883898
1.7862265 -0.72143543 0.16679081
1.6869159 0.28444096 0.010281298
1.6857888 -0.8721115 -0.022780478
1.6873021 -0.88408881 -0.022480225
1.6884115 -0.9024139 -0.021986589
1.6901187 -0.91869253 -0.021085296
1.6959248 -0.92881465 -0.025598286
1.682712 1.0178492 -0.0053795818
1.6828152 1.0131875 -0.0055479505
1.6858841 0.99078679 -0.0071930238
1.678827 0.71017969 -0.0083630206
1.6788294 0.70546359 -0.008455785
1.6859912 0.68192559 -0.014349736
1.6812352 0.66155499 -0.0088472096
1.6805624 0.6500479 -0.010511496
1.6841208 0.62587124 -0.014010238
1.6799787 0.60859144 -0.009736401
1.6820858 0.59950811 -0.011020559
1.6858122 0.55548346 -0.016652726
1.6802633 0.53676635 -0.014257148
1.6801296 0.51932657 -0.013588424
1.6792107 0.50072318 -0.011312537
1.6771349 0.48698202 -0.012023134
1.6873946 0.46082214 -0.016745767
1.6860256 0.44914132 -0.016255248
1.68585 0.42788401 -0.016732728
1.6858015 0.41693667 -0.017139489
1.6873927 0.39141539 -0.019061051
1.6859181 0.37683228 -0.018224144
1.6823649 0.29074794 -0.015231859
1.6829942 -0.87108672 -0.02744648
1.680174 -0.88486993 -0.033067022
1.6807468 -0.90174979 -0.03043462
1.6794226 -0.91690803 -0.02820049
1.671261 1.0598893 -0.017292112
1.6747417 1.0418226 -0.020870904
1.6748847 1.0221621 -0.013749337
1.6765802 1.0070015 -0.014993748
1.6783102 0.98915344 -0.017095149
1.6764343 0.97107589 -0.021736022
1.6766406 0.95186538 -0.020681148
1.6742191 0.93482077 -0.021003544
1.6764369 0.91810852 -0.020323321
1.6703594 0.8974427 -0.01620662
1.6704316 0.88067633 -0.014242033
1.6685088 0.86578763 -0.014507281
1.6761922 0.84246165 -0.018732559
1.6799593 0.82696819 -0.018992815
1.6775129 0.81071085 -0.022408493
1.6770531 0.78717917 -0.022817163
1.6772132 0.77422678 -0.020779539
1.6742506 0.7532019 -0.020948606
1.6748331 0.73674721 -0.016904715
1.6743349 0.71777171 -0.014528643
1.6719457 0.70237815 -0.014252276
1.6827207 0.68216598 -0.018376559
1.6694931 0.66421455 -0.015090574
1.6753647 0.64692008 -0.015969452
1.670987 0.62729764 -0.018501943
1.674041 0.61158228 -0.018443458
1.6735824 0.5940547 -0.021705072
1.672119 0.57315898 -0.024640437
1.6760705 0.55685055 -0.022800721
1.6741558 0.53991634 -0.017970184
1.677122 0.51896822 -0.016987734
1.6720518 0.50147492 -0.015006491
1.6702594 0.48226395 -0.017709099
1.6722257 0.46654555 -0.023083998
1.6782285 0.45287734 -0.021018768
1.6745794 0.41067874 -0.018682024
1.6766636 0.3937816 -0.024195053
1.6735934 0.37642008 -0.02219392
1.6731721 0.36300078 -0.020482378
1.6783998 0.34099469 -0.019055309
1.680956 0.32282668 -0.023307139
1.6818116 0.3034898 -0.025171651
1.6757253 0.29519227 -0.021796895
1.6750604 -0.87258232 -0.047710296
1.6743361 -0.87727082 -0.049197204
1.6671854 1.0350761 -0.020486407
1.6656832 1.0235786 -0.021496641
1.6673665 1.0055178 -0.025509961
1.6627122 0.98965287 -0.023741445
1.6626496 0.96607041 -0.021327477
1.6617248 0.95523602 -0.022334192
1.666199 0.93547785 -0.02163942
1.6646078 0.89423895 -0.023431575
1.6610545 0.88136566 -0.025671467
1.6609052 0.87050927 -0.022679241
1.66646 0.84142154 -0.023655863
1.6681281 0.80661118 -0.02758443
1.6670427 0.79189527 -0.027022669
1.6613525 0.77834934 -0.024804818
1.6643611 0.46710011 -0.029240157
1.8343933 -0.49764621 0.21119177
1.8343956 -0.50242513 0.21109776
1.8278029 -0.022674793 0.2040147
1.8228577 -0.49379274 0.20487857
1.8288714 -0.50355226 0.19993044
1.8212857 -0.6734044 0.19683607
1.8183588 -0.68852562 0.19771488
1.8274908 -0.70648575 0.19092874
1.8279834 -0.72811127 0.1927602
1.8153284 0.20427291 0.19625242
1.8190392 0.19350681 0.19618015
1.8114942 0.15008627 0.19828135
1.8126231 0.13978122 0.19848311
1.8148572 0.11785752 0.1936615
1.8122947 0.10196871 0.19668241
1.8119583 0.059925888 0.19554444
1.8113387 0.047466673 0.19821014
1.8117774 0.032067101 0.19792309
1.8126775 0.010236685 0.19581753
1.8122052 -0.0073056808 0.19872443
1.8161623 -0.023762077 0.19743434
1.8176247 -0.038016278 0.19146687
1.8185937 -0.057414364 0.1865692
1.8182664 -0.095610864 0.19151057
1.8082923 -0.11515135 0.19495897
1.8135829 -0.13072863 0.18937166
1.8165913 -0.15112337 0.19307111
1.8156095 -0.16845368 0.19524816
1.8141878 -0.18400089 0.19392921
1.8146763 -0.20280413 0.1876467
1.819392 -0.23926008 0.18259008
1.8111136 -0.26067227 0.18931581
1.8136107 -0.27314281 0.18992598
1.8135589 -0.31468767 0.18444757
1.8123063 -0.33109635 0.18826558
1.8107176 -0.3409915 0.18737908
1.8096647 -0.41049612 0.18662973
1.8106325 -0.41842824 0.18866155
1.8129517 -0.43907395 0.18577851
1.817098 -0.44949856 0.18440047
1.8178903 -0.47038087 0.19175759
1.823235 -0.4926995 0.19258259
1.8101603 -0.51211149 0.18392836
1.8152885 -0.52744502 0.18244079
1.8155283 -0.54792422 0.18727387
1.8148607 -0.56265783 0.18859331
1.8149047 -0.58265537 0.17953017
1.8222804 -0.60268205 0.18307023
1.8202579 -0.61853451 0.18348137
1.8110977 -0.63429171 0.18127562
1.8180279 -0.65433574 0.18407547
1.8158468 -0.66897815 0.18883361
1.813422 -0.68903542 0.19443223
1.8204604 -0.7097134 0.18162689
1.8215264 -0.7255857 0.18157274
1.8020639 0.24093737 0.19230077
1.8054739 0.22847362 0.19078396
1.8031437 0.21121514 0.19016303
1.8004225 0.16765423 0.19218287
1.8064481 0.16013592 0.19222993
1.8085287 0.11680011 0.19045955
1.8063262 0.10220634 0.19134215
1.8070447 0.084028177 0.19223765
1.8043486 0.06384626 0.19073865
1.8010287 0.048781738 0.18872978
1.8032072 0.035385087 0.19227348
1.8029658 -0.0078175925 0.18992601
1.8059527 -0.023680929 0.18712585
1.8101926 -0.040426061 0.18482885
1.8095876 -0.059539355 0.18501705
1.8033614 -0.077451371 0.18464991
1.8125185 -0.087399587 0.18578766
1.8079748 -0.1351734 0.18426508
1.8100493 -0.15084109 0.18231019
1.8088323 -0.16778165 0.18229422
1.8083582 -0.18554524 0.18443549
1.8165776 -0.23901132 0.18052998
1.8082563 -0.25206161 0.18503109
1.8047668 -0.27673778 0.17863588
1.8056439 -0.29510945 0.17912851
1.8063306 -0.31035537 0.18500143
1.8054041 -0.33204007 0.18078098
1.8069489 -0.35122934 0.18263958
1.8056184 -0.36460516 0.1799258
1.8043261 -0.38165006 0.18424395
1.804922 -0.40243185 0.17826249
1.8048905 -0.41309088 0.18201169
1.8081362 -0.44545656 0.18135116
1.8063205 -0.44988585 0.18048029
1.8039964 -0.51221597 0.18138103
1.8069205 -0.526254 0.17943783
1.8086591 -0.56791925 0.17685197
1.8089479 -0.58207905 0.17126098
1.801529 -0.59127623 0.16403767
1.8034081 -0.71016508 0.17337826
1.8006024 -0.7248978 0.17295849
1.8002682 -0.73572147 0.17202903
1.7943107 -0.27962363 0.16635336
1.7926135 -0.28562054 0.16784191
1.7273344 0.28242931 0.036955185
1.7191466 -0.91000009 -0.022843288
1.7187167 -0.9196558 -0.02098201
1.7194846 -0.92891872 -0.021502981
1.7050391 0.46510819 -0.0093721328
1.7103559 0.29564583 -0.012674166
1.7035416 0.29096112 -0.0051085786
1.702641 -0.87064928 -0.026608078
1.7054863 -0.88426149 -0.029593522
1.7118992 -0.90272272 -0.027984792
1.7137733 -0.91941321 -0.026444463
1.7086275 -0.93202496 -0.024008747
1.7003834 1.0744745 -0.0090352586
1.7024133 1.0363586 -0.012093744
1.6976713 1.02535 -0.010194972
1.7007306 1.004329 -0.0099649848
1.6960005 0.98585159 -0.0049514482
1.6948221 0.9716807 -0.012272701
1.694472 0.95792168 -0.014480478
1.6954781 0.93295199 -0.012546952
1.7031488 0.92462027 -0.016775241
1.6896691 0.83876437 -0.014118359
1.6907364 0.82559454 -0.012466273
1.6948351 0.80941665 -0.013939304
1.6974691 0.78928739 -0.015093018
1.7013392 0.77393723 -0.019299787
1.6924676 0.74788785 -0.016033353
1.6961029 0.73510456 -0.015612875
1.6977378 0.71878928 -0.014050254
1.6950787 0.7013756 -0.018248789
1.6984229 0.68062133 -0.015279342
1.7007757 0.66531932 -0.013423146
1.6918051 0.64519149 -0.013767312
1.6928777 0.63002259 -0.017214473
1.6910459 0.60980701 -0.010572978
1.6914496 0.59136778 -0.013708717
1.6962172 0.5741508 -0.015541526
1.6977053 0.55761373 -0.014297505
1.6949737 0.5377214 -0.015505173
1.6958808 0.52223235 -0.015581409
1.6975435 0.50419319 -0.016068561
1.6971551 0.48392519 -0.019903759
1.6976203 0.46683657 -0.015343869
1.6964867 0.4479126 -0.018188268
1.6981754 0.42979375 -0.018242357
1.6951277 0.41099986 -0.017998796
1.6938887 0.39622459 -0.018000094
1.7022774 0.37626722 -0.019411011
1.7009786 0.3610611 -0.025607102
1.6938652 0.33751348 -0.022475395
1.6951256 0.3221786 -0.021673808
1.6945057 0.30378953 -0.019971188
1.6961727 0.29262295 -0.013121232
1.6958573 -0.87035722 -0.034801729
1.6921083 1.0717406 -0.016533107
1.6898695 1.0602055 -0.020750616
1.69178 1.0437229 -0.021019597
1.6887853 1.0260875 -0.013752982
1.6954402 1.0104411 -0.015190601
1.6853846 0.98163348 -0.013983062
1.6878804 0.97240889 -0.019013787
1.6887472 0.9511891 -0.018406527
1.6878381 0.93356198 -0.01854465
1.6916819 0.91825032 -0.02125621
1.6901408 0.9000749 -0.018904526
1.6927032 0.88258111 -0.019511148
1.6873068 0.86338699 -0.021661684
1.6911768 0.84950179 -0.019768558
1.6855923 0.81841528 -0.015329096
1.689338 0.80621243 -0.021223277
1.6884934 0.79265994 -0.02249106
1.6958429 0.76994902 -0.025730312
1.6894554 0.75548345 -0.023416409
1.6903138 0.73847669 -0.020469392
1.6876296 0.69919461 -0.019181274
1.6852794 0.63805789 -0.018569121
1.6852809 0.63489747 -0.018631285
1.685383 0.58944345 -0.024629362
1.6860234 0.57685494 -0.024239967
1.6946299 0.47925287 -0.024820788
1.6853961 0.40577021 -0.023138179
1.6853985 0.40102968 -0.023231423
1.6948997 0.3584272 -0.028924184
1.6983994 0.34666857 -0.030241383
1.6894014 0.31950966 -0.025887679
1.686 0.30790964 -0.025485922
1.8449097 -0.38873503 0.20575789
1.8448038 -0.39672768 0.20566054
1.8506505 -0.56520689 0.20103855
1.842121 -0.5767526 0.20545404
1.8392606 0.10076074 0.20095742
1.8355235 0.085203037 0.20344391
1.834749 0.074901417 0.20204541
1.8344654 -0.013163218 0.2004955
1.8304237 -0.017922075 0.20264995
1.8369174 -0.15583664 0.19819966
1.8369229 -0.16705605 0.19797903
1.8389741 -0.18651597 0.19646367
1.8442987 -0.25513327 0.19171873
1.8409259 -0.29916906 0.19319633
1.8392621 -0.3100419 0.19495772
1.8410718 -0.38436636 0.19632956
1.8409687 -0.39831221 0.19675246
1.8384825 -0.43738768 0.19170545
1.8386637 -0.45622531 0.1955342
1.8384886 -0.46821901 0.19415145
1.8396345 -0.54830319 0.19284336
1.8345149 -0.56276888 0.19761823
1.837709 -0.58003175 0.19502376
1.8448474 -0.59607077 0.18526338
1.8353612 -0.6709885 0.19364594
1.8363416 -0.6883083 0.19368273
1.8410474 -0.71358776 0.1869345
1.842389 -0.72396249 0.18994452
1.8276762 0.24131325 0.19402999
1.8263085 0.22956142 0.19285448
1.8238043 0.21315138 0.19308977
1.8345633 0.18475109 0.18772301
1.8350652 0.17256562 0.18694049
1.8326046 0.15911244 0.18884595
1.8315055 0.13306266 0.188453
1.8334932 0.1198411 0.19144891
1.8296782 0.10170066 0.19767824
1.8295139 0.08429528 0.19189447
1.8327348 0.069181703 0.18768255
1.8250998 0.025352146 0.19548897
1.833088 0.0099178888 0.1919255
1.8347787 -0.0040204963 0.19560389
1.8277019 -0.044415824 0.18961957
1.8353206 -0.059871491 0.18766731
1.8314446 -0.077373616 0.18660931
1.8315021 -0.094876662 0.19176908
1.8282688 -0.11286002 0.19070172
1.8272048 -0.12931776 0.1880863
1.8371078 -0.14709672 0.18759903
1.8271399 -0.19135515 0.19258805
1.8266726 -0.20124035 0.18990889
1.8338805 -0.21748504 0.17892477
1.8262684 -0.24294648 0.18812245
1.8313178 -0.25710696 0.18653035
1.8364159 -0.27433765 0.18577372
1.8348507 -0.29433307 0.17985722
1.8309474 -0.31077266 0.18499818
1.8338248 -0.32666844 0.18192099
1.8357487 -0.34073973 0.18240167
1.827919 -0.37340394 0.17698039
1.8321418 -0.38606849 0.17988399
1.829337 -0.40136632 0.18254173
1.8314353 -0.41997808 0.18493254
1.8299499 -0.43840173 0.18705541
1.829772 -0.45318651 0.18652028
1.83033 -0.49773112 0.18607658
1.8280823 -0.51013166 0.18434747
1.8336744 -0.53224266 0.18065315
1.8286091 -0.54322481 0.18616296
1.8251159 -0.58104616 0.18277152
1.8361558 -0.59740651 0.18063031
1.8349169 -0.61858118 0.18226863
1.8289547 -0.63669229 0.18113415
1.835121 -0.65420592 0.18245852
1.8290784 -0.71411717 0.18624356
1.82908 -0.71731097 0.18618076
1.8222567 0.24486209 0.18482187
1.8209063 0.22534968 0.18705752
1.8214887 0.21903509 0.18660237
1.8219472 0.1711223 0.18541172
1.8277147 -0.065759242 0.17752525
1.8244987 -0.076112024 0.17748518
1.8120601 -0.28215107 0.16573933
1.8207608 -0.29120755 0.16886057
1.8256983 -0.37652591 0.1726537
1.8191954 -0.40537038 0.17580983
1.8098471 -0.2820687 0.16149348
1.8096334 -0.28681782 0.1615264
1.7335873 -0.85346717 -0.0056476831
1.7372187 -0.85942686 -0.0065918397
1.7356861 0.29825211 -0.005666344
1.7343963 0.29241154 -0.00041633926
1.7374908 -0.86923933 -0.02282941
1.7360119 -0.87939763 -0.027794776
1.7268654 -0.91918647 -0.022285854
1.7278979 -0.93786544 -0.02470924
1.7384219 -0.94779557 -0.025801236
1.7231818 1.0728978 -0.0071891691
1.7224549 1.0627558 -0.0068457052
1.7182858 1.003832 -0.0048902542
1.7201707 0.99541014 -0.0064509721
1.7269269 0.80469477 -0.0098636877
1.7229402 0.78940725 -0.0082460381
1.7210935 0.7776323 -0.01133795
1.727486 0.73009634 -0.013035469
1.7274876 0.7268762 -0.013098807
1.7253376 0.62328058 -0.015485046
1.7245766 0.61403638 -0.015495679
1.7176374 0.57410556 -0.012701836
1.7159853 0.55748302 -0.011797125
1.7207204 0.54058176 -0.01464573
1.7254257 0.51551646 -0.017629581
1.7204694 0.50267011 -0.014205555
1.7199836 0.4848665 -0.014188281
1.7198769 0.46720806 -0.014451395
1.7177964 0.44897428 -0.013265097
1.7244527 0.42979589 -0.013734358
1.727915 0.41447806 -0.015847342
1.7276902 0.38775125 -0.017813683
1.7248845 0.37781793 -0.016867975
1.7247423 0.35556585 -0.014937734
1.7251737 0.34121355 -0.016299002
1.725577 0.32231286 -0.019492522
1.7250903 0.30346024 -0.015541531
1.7240604 0.29234979 -0.0063500856
1.7330194 -0.87147212 -0.032215256
1.7298399 -0.88498044 -0.036625676
1.7291706 -0.90125471 -0.038647331
1.7312754 -0.91267955 -0.033707347
1.7205449 -0.94037408 -0.028361252
1.733466 -0.94733334 -0.034005355
1.7160623 1.0769545 -0.013147932
1.7128291 1.0596416 -0.012151415
1.7108178 1.0453893 -0.013631628
1.7160878 1.0239779 -0.017152982
1.7165285 1.007264 -0.0097186742
1.7156878 0.9873392 -0.011163834
1.7106516 0.97010654 -0.012881952
1.7094858 0.95342928 -0.016142806
1.7142265 0.93387568 -0.012847903
1.7097421 0.91728085 -0.015292522
1.7105319 0.90199953 -0.021467879
1.7095472 0.87924367 -0.015098355
1.708342 0.86265022 -0.017848935
1.7130914 0.8445856 -0.018635938
1.7177393 0.82615715 -0.017955448
1.7191411 0.80972672 -0.017750001
1.713149 0.79008347 -0.015047545
1.7105767 0.77123702 -0.013761615
1.712043 0.75586975 -0.019316472
1.7177929 0.73662001 -0.018879576
1.7160194 0.71844709 -0.015679946
1.7087853 0.70183808 -0.018906778
1.7106483 0.68378156 -0.015887221
1.7123559 0.66182452 -0.017918482
1.7124605 0.64521515 -0.021732625
1.7155381 0.62916291 -0.021150844
1.7155133 0.61176014 -0.019186342
1.7111698 0.59259784 -0.018692028
1.7150686 0.57547551 -0.015494053
1.714015 0.55526179 -0.016821733
1.7159721 0.54016733 -0.018879121
1.7189451 0.52041411 -0.0210217
1.7110815 0.5016073 -0.017345808
1.7109003 0.48449755 -0.018605243
1.7149661 0.46032825 -0.018824194
1.7129105 0.44836318 -0.020925848
1.7122688 0.4321382 -0.019327076
1.7136734 0.41141245 -0.018797381
1.7177434 0.39543518 -0.022678386
1.7142451 0.37670162 -0.017929878
1.7131615 0.35826176 -0.023476137
1.714963 0.34152246 -0.024975002
1.7146816 0.3221347 -0.022999261
1.7136058 0.30805451 -0.021736216
1.7030095 1.0601554 -0.019981252
1.7010769 1.0476568 -0.01875432
1.7011249 0.95194256 -0.020637002
1.7046477 0.91148418 -0.023097411
1.7063299 0.89906365 -0.024020171
1.7020956 0.87957698 -0.023899879
1.7021135 0.86426139 -0.024876835
1.7012569 0.75913072 -0.025444148
1.8622847 -0.22913034 0.19938403
1.8621924 -0.23965029 0.2009078
1.8628702 -0.25838661 0.19849741
1.8642446 -0.38764206 0.19840647
1.861057 -0.40154615 0.20131561
1.8646433 -0.41760075 0.19785802
1.861582 -0.43308845 0.19581102
1.8661342 -0.46185082 0.19277215
1.866357 -0.46840686 0.19252354
1.8590028 -0.51306927 0.19750682
1.8689886 -0.53052026 0.19358739
1.8689935 -0.54027104 0.1933956
1.8625025 -0.56528276 0.20011637
1.8574822 -0.58420378 0.20026267
1.8550888 -0.59249997 0.19809505
1.8592169 -0.67826068 0.19234467
1.8607585 -0.68751568 0.19132492
1.8638391 -0.70118719 0.18938078
1.8489645 0.24173313 0.1992251
1.8538225 0.23112142 0.19570525
1.8510627 0.20866439 0.19852956
1.854185 0.19215815 0.19722019
1.8552512 0.17446953 0.19628635
1.8526345 0.15778415 0.19593374
1.8595761 0.13838284 0.19112761
1.8568593 0.11893404 0.1916692
1.8554592 0.10037848 0.19843362
1.8539315 0.082620203 0.19998702
1.8553615 0.071435273 0.19175686
1.8564382 -0.0090863584 0.19207202
1.85702 -0.022875253 0.19240795
1.8568856 -0.040947996 0.18749326
1.8589883 -0.060920496 0.19271693
1.8597254 -0.075034149 0.19093548
1.8590754 -0.096919045 0.19177118
1.8600532 -0.11380372 0.19149189
1.8577377 -0.13083094 0.1882481
1.8512549 -0.1502613 0.19416469
1.8575617 -0.16596226 0.19316846
1.8609455 -0.18606704 0.19108914
1.8562044 -0.19865192 0.18852325
1.8594344 -0.22903861 0.19355449
1.8573041 -0.23844747 0.19161595
1.8546576 -0.25809699 0.19474652
1.857571 -0.27220795 0.18690959
1.8557343 -0.29664853 0.19058281
1.8584456 -0.3138698 0.19337858
1.8536938 -0.33048925 0.19130848
1.8525358 -0.34506929 0.18993117
1.8588859 -0.3799257 0.19093929
1.8539829 -0.40949205 0.18935977
1.8543556 -0.41928372 0.18896447
1.8566954 -0.43584868 0.18968892
1.8603631 -0.45425916 0.19114101
1.8519281 -0.46974057 0.1954632
1.8547354 -0.51523888 0.18643036
1.8594242 -0.52499241 0.18673843
1.8636158 -0.54313439 0.18463781
1.8493179 -0.60186088 0.18759213
1.8503422 -0.61553538 0.18368863
1.8554883 -0.63657129 0.18120693
1.8566883 -0.65278876 0.18068238
1.8577287 -0.66805738 0.17931035
1.8571455 -0.6911844 0.18769649
1.8631679 -0.70724571 0.18269162
1.8591057 -0.72236127 0.18324026
1.8463514 0.24425177 0.19426149
1.8469828 0.22775427 0.19130978
1.8455887 0.20962727 0.19124219
1.8482552 0.19216456 0.1894099
1.8500119 0.17542517 0.18916126
1.8456509 0.15549839 0.19108567
1.8513603 0.13857558 0.18641739
1.8541884 0.12659037 0.18555751
1.8397169 0.077211626 0.18457408
1.8476181 0.066981241 0.18625532
1.8435299 0.048070032 0.19111063
1.8431169 0.030323252 0.19099754
1.8450934 0.01297964 0.18696697
1.8476601 -0.00084395317 0.18846971
1.8429314 -0.030916538 0.19175918
1.8481156 -0.043120977 0.18585642
1.8552723 -0.07658156 0.18398635
1.8530589 -0.11610115 0.1828067
1.8447151 -0.13419378 0.18445434
1.8431083 -0.14609595 0.18850482
1.8482972 -0.20821118 0.18162633
1.8502389 -0.22258025 0.1770079
1.8503966 -0.23348185 0.17810015
1.8534341 -0.27583426 0.18053102
1.8497142 -0.29099146 0.17984244
1.8473938 -0.33214456 0.18178381
1.8468338 -0.3457799 0.18018734
1.8428582 -0.38030195 0.1784576
1.8467544 -0.41980317 0.17872621
1.8493726 -0.42885235 0.17859645
1.847558 -0.51153433 0.17085679
1.8489157 -0.52367169 0.17219189
1.8573823 -0.53790694 0.17386395
1.8438764 -0.60771132 0.18004809
1.8446077 -0.61442238 0.17950976
1.8441159 -0.64968467 0.1791006
1.756945 0.2870844 0.024084851
1.7554526 0.28713995 0.021221656
1.7546818 -0.86602831 -0.01170428
1.7566698 -0.92133176 -0.022615204
1.7434317 0.62300795 -0.0030370762
1.7453086 0.61532944 -0.0025683781
1.7518897 0.55936426 -0.0084065516
1.7512645 0.51229966 -0.010848259
1.7494267 0.50359321 -0.0096855219
1.7495098 0.4059867 -0.0096460702
1.743446 0.39597553 -0.0082731992
1.742311 0.35123575 -0.0094425743
1.7454 0.34209412 -0.010871663
1.7492791 0.32174155 -0.013089477
1.7485377 0.30319867 -0.010017932
1.7571787 0.2942712 -0.0034542771
1.7484978 -0.88894278 -0.031274095
1.7474999 -0.90316784 -0.032416672
1.7462833 -0.91899347 -0.026710443
1.7413125 -0.93728352 -0.02396917
1.7417111 1.0763819 -0.016868444
1.7415626 1.0681545 -0.016917432
1.7326335 1.0168844 -0.011306124
1.7332488 1.0075806 -0.011940507
1.7420398 0.9286679 -0.019962072
1.7410775 0.91998184 -0.019418288
1.7393486 0.89383453 -0.012265134
1.7358023 0.88067281 -0.010404764
1.7349392 0.86280233 -0.012258142
1.7347002 0.84354526 -0.012624357
1.7405888 0.82512575 -0.01523358
1.7385743 0.81019467 -0.0098678842
1.739166 0.79164135 -0.014507505
1.7347416 0.75132138 -0.012489922
1.7347546 0.73790252 -0.011393132
1.7367603 0.71624136 -0.013711128
1.7380545 0.70001578 -0.013043402
1.7421101 0.68250889 -0.016536882
1.7429149 0.66555923 -0.01755102
1.7419735 0.64522606 -0.017010121
1.7344549 0.62896496 -0.010877374
1.7382386 0.61072475 -0.013814325
1.7414194 0.59177381 -0.021727322
1.7358372 0.57277602 -0.013973807
1.7358924 0.55628794 -0.012488125
1.7378372 0.54110742 -0.018710457
1.7386459 0.51768184 -0.018615218
1.7408948 0.50255138 -0.01595689
1.742385 0.48483983 -0.022338878
1.739105 0.46545932 -0.020760192
1.7354496 0.44729978 -0.017428441
1.733404 0.43053356 -0.0089398241
1.7417545 0.41193256 -0.014939473
1.7334135 0.3954241 -0.01499222
1.7377208 0.37409106 -0.018321965
1.7381079 0.36123088 -0.016599938
1.740073 0.33777937 -0.014538936
1.7438593 0.32187158 -0.018803766
1.7381283 0.30794704 -0.014486471
1.7373402 -0.88919699 -0.034388009
1.7405897 -0.90264297 -0.03784056
1.7359005 -0.91335446 -0.035124615
1.7339312 1.0532688 -0.017533302
1.729973 1.0425164 -0.017778091
1.7301158 1.0243074 -0.017247917
1.7314184 0.99822587 -0.016728435
1.7311391 0.98834813 -0.016711416
1.7303056 0.97219467 -0.016899291
1.7287637 0.95340151 -0.018600378
1.7377212 0.9351778 -0.020631554
1.7294202 0.91359234 -0.021511624
1.7290323 0.89994675 -0.021770401
1.7268958 0.877267 -0.016361849
1.7286946 0.86375016 -0.018490491
1.7270118 0.84345007 -0.016043119
1.7313695 0.82961494 -0.017957119
1.729436 0.76564521 -0.01775739
1.7285211 0.75320756 -0.02062629
1.7262142 0.73868501 -0.017869432
1.7283465 0.71579701 -0.019675175
1.7291064 0.70165759 -0.022720026
1.7328304 0.68353516 -0.023848422
1.7335912 0.66432327 -0.025976764
1.7310214 0.64879543 -0.02479911
1.7255039 0.63526708 -0.01933757
1.7296847 0.60610789 -0.024494927
1.730933 0.59479171 -0.025527038
1.7273173 0.53091383 -0.020715505
1.7274214 0.52611411 -0.020885292
1.8762506 0.075918257 0.20326561
1.8779116 0.065742768 0.20558853
1.8782949 0.05492226 0.20466891
1.8777492 -0.045675267 0.19916913
1.8741385 -0.05942405 0.20178488
1.8802507 -0.076914638 0.19792949
1.8841498 -0.089299284 0.19391567
1.8841647 -0.11881495 0.19333509
1.8844619 -0.12703593 0.19301428
1.8806833 -0.16835786 0.19596067
1.8722752 -0.18311749 0.19854189
1.8822843 -0.22513653 0.19229348
1.8776461 -0.23744531 0.19828793
1.8761007 -0.25207171 0.19512776
1.8824131 -0.27875748 0.19607374
1.8785304 -0.29246107 0.1976207
1.8821375 -0.31192252 0.19068979
1.8836083 -0.32366025 0.18966368
1.8821667 -0.3538048 0.19405298
1.8855871 -0.36513451 0.19435848
1.8807844 -0.38731551 0.19421558
1.8832884 -0.40165895 0.19577272
1.8729544 -0.42366129 0.19647808
1.8741627 -0.43581197 0.19447042
1.8799485 -0.47506332 0.18871361
1.8702122 -0.53441852 0.19531432
1.8707153 -0.53877139 0.19619013
1.8755362 -0.57081139 0.19666597
1.8748815 -0.58198452 0.19680183
1.8760411 -0.60214341 0.19406663
1.8754784 -0.618343 0.19319345
1.8810922 -0.63416338 0.19016464
1.8779726 -0.6538533 0.18631819
1.8763785 -0.67217338 0.18851711
1.8751138 -0.68756092 0.18880831
1.869295 -0.70287448 0.19007793
1.8713987 0.24199539 0.19332166
1.8753624 0.22728431 0.1931494
1.8738402 0.21066032 0.19702736
1.8736467 0.19149034 0.19619863
1.876272 0.17482315 0.19560733
1.8672193 0.15137365 0.19257453
1.8731411 0.14012501 0.1921782
1.8704882 0.11793735 0.19048737
1.8720489 0.10354315 0.19654383
1.8746753 0.084262848 0.19685195
1.8710072 0.06574963 0.19194902
1.8744007 0.050782118 0.18799402
1.870317 0.027737828 0.18697912
1.8690766 0.013494147 0.18925335
1.8694607 -0.0041181287 0.18919499
1.8706224 -0.025424264 0.1899661
1.8698381 -0.0420761 0.18960488
1.8709362 -0.056043033 0.19430976
1.8756071 -0.080271639 0.18941647
1.8785952 -0.089248359 0.18740378
1.8773177 -0.12002747 0.19207211
1.8725106 -0.13247813 0.18784963
1.8716363 -0.15109132 0.19208568
1.8697122 -0.16913061 0.19336009
1.8694316 -0.18593651 0.19335932
1.8683528 -0.20507427 0.18561837
1.8755583 -0.22261231 0.1819614
1.8710841 -0.27792972 0.1881804
1.8687757 -0.29081959 0.18690373
1.8758342 -0.31158057 0.18978114
1.8799441 -0.32974279 0.18780799
1.8724891 -0.35096848 0.18632193
1.8757927 -0.36419713 0.18288958
1.8768523 -0.38143581 0.18849039
1.8748437 -0.44420308 0.18712765
1.8782076 -0.45695698 0.18628697
1.8776817 -0.47825003 0.18429719
1.8678055 -0.53361088 0.17772578
1.8702297 -0.54068321 0.17459019
1.8665918 -0.60327584 0.18653889
1.8661948 -0.61941624 0.18539426
1.8678536 -0.63386762 0.18386617
1.8764622 -0.65379703 0.18342029
1.8697127 -0.67193705 0.18126105
1.8677946 -0.70769447 0.18709882
1.8667409 -0.72787255 0.18357791
1.8689073 -0.73742557 0.18591572
1.8583484 0.14756817 0.18661577
1.8594253 0.013660721 0.18267319
1.8607113 -0.2086509 0.17839015
1.867714 -0.22223742 0.17281567
1.8709875 -0.23120607 0.1722177
1.8615524 -0.28853166 0.17637195
1.8620746 -0.5312596 0.17137411
1.784103 0.29160759 0.0092101851
1.7720461 -0.95627105 -0.010461831
1.7759416 0.30119348 -0.0035515127
1.7643329 0.29475161 0.0013589766
1.7712623 -0.87106949 -0.016160196
1.7695942 -0.88399851 -0.022541977
1.7711983 -0.90230501 -0.022100559
1.7679687 -0.92020261 -0.020577742
1.7683427 -0.93773174 -0.022643054
1.7671583 -0.95417643 -0.02001645
1.7679627 0.96489614 -0.0034223329
1.7682474 0.95412821 -0.0034931998
1.7546884 0.89460379 -0.0059470343
1.7566023 0.88751614 -0.0074699009
1.7577058 0.84127688 -0.0083621414
1.7562841 0.82565117 -0.0062585184
1.7581398 0.81489336 -0.0099853603
1.7651131 0.76700175 -0.011152309
1.7620374 0.75340664 -0.0066442857
1.7618065 0.74362445 -0.0080255475
1.7633944 0.68220454 -0.010356972
1.760052 0.66706789 -0.012509229
1.7574912 0.64490175 -0.011202795
1.7614676 0.62786496 -0.010415211
1.7615782 0.61181599 -0.013287696
1.7673212 0.59116405 -0.016277654
1.7681297 0.57607496 -0.013530775
1.7627275 0.55484205 -0.01312894
1.7672958 0.54642361 -0.017790714
1.7611988 0.51589441 -0.014972793
1.7639169 0.50272071 -0.016195947
1.7589409 0.46481985 -0.015550423
1.7617309 0.44770053 -0.016248079
1.7608768 0.42976874 -0.014349888
1.7575258 0.41237187 -0.0089539532
1.7590129 0.39804751 -0.009816749
1.756395 0.35558581 -0.015597018
1.7640152 0.33851984 -0.016009813
1.7655059 0.32192311 -0.013531491
1.7682005 0.30753404 -0.012837393
1.7611487 0.2946665 -0.0023193953
1.7643279 -0.88618827 -0.033343691
1.7636013 -0.90187466 -0.032040887
1.7616346 -0.91329539 -0.028367871
1.7595464 -0.93870825 -0.026756046
1.7599953 -0.95292842 -0.027570404
1.7498026 1.0960693 -0.015184768
1.7524542 1.0818186 -0.021486206
1.757272 1.0383129 -0.02507673
1.7567344 1.0270987 -0.020869244
1.7459453 1.0114237 -0.017251238
1.7584438 0.96709317 -0.018065741
1.7539181 0.95125675 -0.01368742
1.7473576 0.93405318 -0.01445417
1.7464042 0.92005032 -0.017354555
1.7504251 0.89893532 -0.012326857
1.754694 0.88145965 -0.013035322
1.7538704 0.85997754 -0.015325281
1.7501247 0.84378117 -0.012905117
1.7488643 0.82885528 -0.011883005
1.7534292 0.80694693 -0.014336729
1.750116 0.78851992 -0.023111733
1.749469 0.77025801 -0.01861557
1.7533088 0.7566027 -0.014914468
1.7571977 0.73660564 -0.020803373
1.7570885 0.71901464 -0.015064023
1.757401 0.70077854 -0.014443872
1.7604107 0.68347394 -0.015665779
1.7498206 0.65898675 -0.014921335
1.7500288 0.65106606 -0.015225963
1.7569503 0.60609591 -0.017140361
1.7555696 0.59404671 -0.019836223
1.7599027 0.57890564 -0.018093091
1.7585787 0.5492152 -0.017420467
1.7546639 0.53915852 -0.021702062
1.7510263 0.52367592 -0.02004589
1.7618293 0.49642628 -0.021662677
1.7577668 0.48797157 -0.024901725
1.7539506 0.46648622 -0.021883558
1.7544408 0.44982827 -0.021326739
1.7529178 0.43154147 -0.018152988
1.7524672 0.41879413 -0.017503191
1.7560227 0.38730168 -0.022691434
1.7584776 0.38298976 -0.024561647
1.7539887 0.36724642 -0.021598073
1.7429981 1.0946898 -0.019180417
1.7478076 1.0609363 -0.021673279
1.746071 1.0418172 -0.024458317
1.7472799 1.0312313 -0.021856394
1.7472947 1.0018765 -0.022433797
1.752491 0.98878568 -0.026527768
1.7463048 0.96914631 -0.02433251
1.7434871 0.95396465 -0.021686442
1.7430513 0.9406473 -0.020478647
1.7455763 0.91118836 -0.022913655
1.7440716 0.77360636 -0.024456441
1.9066043 0.11959929 0.20647798
1.9060792 0.10964601 0.20656367
1.9017737 0.06579075 0.20779622
1.9025975 0.048399474 0.20722948
1.904249 0.035281017 0.20422167
1.9070172 -0.20287037 0.19812801
1.9062743 -0.2787427 0.19892412
1.8983291 -0.28733617 0.20297623
1.908998 -0.35210913 0.19942701
1.9093218 -0.36599967 0.19894467
1.9050142 -0.38347882 0.19739386
1.9067396 -0.39783257 0.19636783
1.9031005 -0.44318172 0.19742019
1.9018047 -0.45205879 0.1976683
1.9063505 -0.49750623 0.19401522
1.907438 -0.5071243 0.19387512
1.8966259 -0.60773301 0.19580151
1.8966291 -0.61430961 0.19567221
1.9034015 -0.69427282 0.19051738
1.9004812 -0.70299017 0.19190201
1.8872821 0.23746228 0.19855356
1.8879461 0.22768821 0.19800352
1.8926129 0.21181899 0.19516234
1.900052 0.18955009 0.19069213
1.8994002 0.17459136 0.19075581
1.8997133 0.15471868 0.19514066
1.9023503 0.13779594 0.19571477
1.9000659 0.11971904 0.19685319
1.8975257 0.10256571 0.19668786
1.8950043 0.083443128 0.19638164
1.8950278 0.067555591 0.20540571
1.8917142 0.04635578 0.20074089
1.8924774 0.031190006 0.19798224
1.8927197 0.014940702 0.1939638
1.8992151 -0.0053112544 0.19086249
1.8943328 -0.025507422 0.1905628
1.8925236 -0.040993422 0.19480604
1.8950926 -0.060183261 0.19604032
1.8864074 -0.099269688 0.19249678
1.8866298 -0.1132336 0.19304132
1.8902591 -0.13318966 0.19208841
1.8923844 -0.14975025 0.19032176
1.897514 -0.16818707 0.19389062
1.8938018 -0.1865155 0.19448744
1.8946463 -0.20382752 0.19321845
1.8972186 -0.22081153 0.19053929
1.8972528 -0.2416089 0.19260994
1.894428 -0.25816122 0.18828365
1.8964263 -0.27411491 0.19267097
1.8941188 -0.29193893 0.19804639
1.8948537 -0.31225988 0.18940671
1.8969268 -0.32929441 0.18514784
1.8952825 -0.34791553 0.19075269
1.89054 -0.36852252 0.19717237
1.8901507 -0.38236746 0.19289297
1.8998932 -0.40060616 0.19200771
1.895273 -0.41928783 0.18897679
1.8975809 -0.44140974 0.19058256
1.8945148 -0.45522061 0.18840426
1.8927388 -0.47441909 0.18791878
1.8928431 -0.49218929 0.18838471
1.9016961 -0.50869226 0.18578885
1.8952911 -0.52438718 0.18224366
1.8986377 -0.54387087 0.18474801
1.8937819 -0.58279973 0.19221045
1.8941401 -0.59799641 0.19209702
1.8947294 -0.61506093 0.19201025
1.8965868 -0.64186275 0.18582369
1.9018302 -0.65445739 0.18276209
1.9004229 -0.66956097 0.1830378
1.8962162 -0.69305545 0.18622014
1.8946794 -0.70684898 0.18529329
1.8949292 -0.72494346 0.18136063
1.8939267 -0.74105406 0.17596614
1.8851124 0.2392052 0.19415474
1.884815 0.23082152 0.19602603
1.8917091 0.20206042 0.19171081
1.8912191 0.19376333 0.19181688
1.8892015 0.16719629 0.19240123
1.8838903 0.15758801 0.19136983
1.8916601 0.13487707 0.18640494
1.8879499 0.12133959 0.18744753
1.8817489 0.041899513 0.18738532
1.882055 0.033046737 0.1876175
1.8899323 0.0084927324 0.18732138
1.8900088 -0.0043975818 0.18723114
1.8899459 -0.023737662 0.18641786
1.8868889 -0.036865711 0.18970363
1.8848892 -0.099213168 0.18958418
1.8835958 -0.11062127 0.19006784
1.8848692 -0.13899812 0.18582991
1.8858542 -0.14530274 0.1862919
1.8828127 -0.20738359 0.18674873
1.8825976 -0.21555917 0.18670771
1.8831897 -0.37848169 0.18210176
1.8889643 -0.45324817 0.18049636
1.8870028 -0.48231503 0.18100157
1.8864491 -0.49001902 0.17815678
1.8853852 -0.72589546 0.1737036
1.7979175 -0.91983926 -0.022458857
1.7946526 -0.92927051 -0.02170546
1.7934276 -0.96318263 -0.021509849
1.7951757 -0.96931583 -0.020445097
1.7891136 0.85953677 -0.0032719877
1.7851434 0.76508099 -0.0022901406
1.7850101 0.75677168 -0.0023565139
1.7822008 0.60730267 -0.0032577368
1.779283 0.59468418 -0.003932762
1.7876778 0.5198825 -0.0068135089
1.7859328 0.42390713 -0.0094378321
1.7875223 0.41381139 -0.0096095102
1.7861049 0.36930171 -0.0086109964
1.781196 0.35909438 -0.0076022507
1.7894815 0.33224058 -0.013716594
1.7878382 0.32199889 -0.012752972
1.7905246 0.30629376 -0.0089358073
1.7882845 -0.907502 -0.024821172
1.7934917 -0.92053545 -0.025714353
1.7889999 -0.93724293 -0.024399975
1.7905115 -0.95518267 -0.028624741
1.7802995 1.10816 -0.01330017
1.7836524 1.0969613 -0.011040214
1.769165 1.0397797 -0.0096142795
1.7719692 1.0317079 -0.011793773
1.7738777 1.0049276 -0.013688214
1.7789215 0.98623282 -0.016341858
1.7749403 0.94981617 -0.0079837488
1.7768444 0.93472981 -0.013882103
1.7749648 0.91565657 -0.0081583243
1.7767673 0.89942586 -0.01185085
1.7754534 0.87846911 -0.011003508
1.7805349 0.8624199 -0.011678346
1.7788296 0.8454448 -0.012066765
1.7756943 0.82568002 -0.011089488
1.7769365 0.80933899 -0.015220762
1.7760365 0.79073673 -0.015065693
1.7752681 0.7733174 -0.010280629
1.7809964 0.75366318 -0.0091862734
1.7774005 0.73730463 -0.015674205
1.7749966 0.71918869 -0.016796282
1.77565 0.69832236 -0.016417308
1.7755669 0.68344718 -0.011292581
1.7707474 0.66362226 -0.014009048
1.778895 0.6485554 -0.018648831
1.7781385 0.62618423 -0.012540776
1.7756442 0.60961479 -0.011350391
1.773175 0.59268892 -0.010313608
1.7755346 0.57624131 -0.009117607
1.7746822 0.55422044 -0.013936655
1.7737191 0.53760576 -0.013872697
1.7797503 0.52119917 -0.016224749
1.7779636 0.50433606 -0.020260211
1.7760754 0.48554081 -0.023101535
1.7721192 0.46703562 -0.019460067
1.7797052 0.44671676 -0.019149097
1.7804716 0.42976302 -0.015927644
1.7803099 0.41236848 -0.011860082
1.7740232 0.39235303 -0.018530106
1.7729872 0.37568417 -0.017334893
1.7723635 0.35825017 -0.015773289
1.7788682 0.34119704 -0.016795997
1.7832888 0.32390875 -0.014643352
1.7737063 1.1104085 -0.020313421
1.7731649 1.0967319 -0.022654152
1.7751338 1.0817243 -0.027507124
1.7662759 1.0577444 -0.02526811
1.7629722 1.042098 -0.019037779
1.7647542 1.0248241 -0.018343695
1.7643842 1.0065041 -0.020975059
1.7663416 0.9901492 -0.02352459
1.7735893 0.97870374 -0.022042457
1.7680945 0.9453004 -0.016684888
1.7669543 0.93391049 -0.017776271
1.7647066 0.91799772 -0.020924581
1.7671354 0.87729728 -0.018945251
1.7668816 0.86479968 -0.018028714
1.7695588 0.80642533 -0.021708161
1.7663267 0.79066622 -0.022882462
1.7662323 0.77846867 -0.021063743
1.772843 0.7465834 -0.021951798
1.7702209 0.73873115 -0.023779506
1.7665083 0.72560537 -0.017769439
1.7715002 0.70316005 -0.021817759
1.766161 0.60239202 -0.019896608
1.7655053 0.53354639 -0.022755759
1.7667197 0.48370355 -0.026241237
1.7677015 0.3878454 -0.025154274
1.7660003 0.37629074 -0.02742763
1.7664843 0.36622286 -0.024690205
1.7667938 1.0758293 -0.031367645
1.7672062 1.0662105 -0.031856962
1.7658204 0.98615962 -0.032380991
1.9889002 -0.37236381 0.31391656
1.9886761 -0.38232887 0.31382209
1.9853985 -0.67528361 0.31293261
1.9833157 0.10192478 0.30919701
1.9762163 -0.014906698 0.30831057
1.9768797 -0.024177758 0.30945286
1.9847245 -0.083522484 0.30861628
1.9829566 -0.09180373 0.30559278
1.9742144 -0.30266353 0.30653858
1.975394 -0.31080034 0.30657816
1.9852325 -0.37252721 0.30692288
1.9848198 -0.38313875 0.30640331
1.9822994 -0.67435467 0.30551374
1.9748455 0.23574649 0.29732439
1.9738251 0.22535747 0.30126545
1.9727626 0.21355875 0.30152586
1.9773031 0.1001443 0.29881403
1.9748827 -0.01480811 0.30160427
1.9714682 -0.026673375 0.29953295
1.9808661 -0.086719014 0.30114409
1.9808686 -0.091729216 0.30104554
1.9701751 -0.30250704 0.29889715
1.9697016 -0.31210157 0.29819697
1.9720759 0.23577413 0.29309124
1.9699029 0.22561431 0.29206556
1.9707254 0.21391472 0.2932947
1.971615 0.10066167 0.28745773
1.9700767 -0.02958113 0.28702518
1.9341046 -0.60438144 0.20053075
1.9234756 0.20586877 0.19919337
1.9215384 0.19397242 0.1999912
1.9237341 0.13076954 0.19759893
1.923789 0.11884796 0.20300446
1.9200656 0.10548732 0.19968599
1.9228402 0.080709472 0.19521132
1.9248694 0.058859952 0.20127018
1.9217577 0.047100384 0.2026843
1.9162931 0.029597716 0.20179054
1.9201485 0.018313356 0.19795603
1.9194994 -0.0088724904 0.19650981
1.9209958 -0.021527993 0.1956263
1.919742 -0.049404688 0.19433521
1.9136992 -0.059190691 0.19736053
1.9219666 -0.085055538 0.19372089
1.9227664 -0.096214913 0.19370934
1.9224625 -0.11378406 0.19335894
1.9184549 -0.12426068 0.19546051
1.9181092 -0.20416373 0.19220129
1.9176658 -0.22242041 0.19208297
1.9138758 -0.23522455 0.19385105
1.9225094 -0.2607713 0.19254099
1.9219435 -0.2747764 0.19539821
1.9221194 -0.29245368 0.19464974
1.9248354 -0.30343756 0.18858919
1.9251448 -0.33562687 0.19032221
1.9249575 -0.34559673 0.19715147
1.9277648 -0.36645651 0.20091927
1.9241499 -0.38212591 0.19403639
1.9255881 -0.44112727 0.19381043
1.9255763 -0.45549166 0.19564338
1.9237739 -0.47554624 0.18857779
1.9256308 -0.49082962 0.18976662
1.9169405 -0.51040179 0.19521461
1.9218572 -0.52780199 0.19130681
1.9167583 -0.54687899 0.18798438
1.9183993 -0.56312144 0.19073491
1.9152653 -0.58508021 0.18727
1.9238129 -0.60080242 0.19073349
1.9200944 -0.61672711 0.19397078
1.9208062 -0.63588321 0.18850149
1.9192934 -0.65321928 0.18851621
1.9210336 -0.67072481 0.18468265
1.9200635 -0.68926549 0.18174927
1.9231158 -0.70821619 0.18708983
1.91924 -0.72503698 0.18499638
1.9189399 -0.73651719 0.18520121
1.9050708 0.2413266 0.19544122
1.9071881 0.22907132 0.19438343
1.9141957 0.20927976 0.19161251
1.915202 0.19284661 0.19128548
1.9114869 0.17439245 0.19038837
1.9102031 0.15788008 0.19590499
1.9068561 0.14634646 0.20123687
1.9161454 0.097272977 0.19280349
1.9189078 0.084056087 0.19170024
1.9077462 0.026342692 0.1974934
1.9081124 0.012198951 0.19100566
1.9151626 -0.0073046596 0.19117582
1.9130812 -0.022729374 0.1891624
1.9171988 -0.040586818 0.18976121
1.9085746 -0.059005827 0.19445419
1.913214 -0.078389592 0.18950433
1.9143641 -0.095832258 0.18687017
1.9095895 -0.1134557 0.18933569
1.9067037 -0.13108253 0.19159879
1.9152764 -0.14251997 0.18546623
1.9134496 -0.1677925 0.18973519
1.917123 -0.18586348 0.18930678
1.9057314 -0.22283328 0.19091955
1.9090714 -0.23970428 0.19256346
1.9146283 -0.26036456 0.18515269
1.915293 -0.27091655 0.18485843
1.9112703 -0.29974362 0.19022398
1.9138541 -0.31089732 0.18548432
1.9123 -0.33245057 0.18377022
1.9080267 -0.34130692 0.18739225
1.9059378 -0.41493937 0.1870811
1.9080443 -0.46316531 0.18877669
1.9178634 -0.47411457 0.18331881
1.9208468 -0.48659214 0.18148293
1.9086697 -0.51674753 0.18364084
1.9098351 -0.52705222 0.18281572
1.9118416 -0.54379523 0.18141529
1.9133397 -0.56790185 0.18108717
1.9147162 -0.57466733 0.18304916
1.9092287 -0.62589622 0.18498674
1.913645 -0.63744229 0.1824035
1.9076964 -0.64852691 0.18536626
1.9178175 -0.68837434 0.17843066
1.915749 -0.72803766 0.17952186
1.915627 -0.73894608 0.17843166
1.8169081 -0.88824129 -0.0092547862
1.8196765 -0.90063101 -0.0103742
1.819344 -0.92009997 -0.014525565
1.8088651 0.29885635 -0.0018209899
1.8060694 0.29337001 4.5583597e-06
1.809345 -0.88410276 -0.018429048
1.8113095 -0.90286165 -0.021046003
1.8117316 -0.91936028 -0.020513589
1.8108444 -0.93337351 -0.02258173
1.8087121 -0.97430581 -0.023167495
