# .PCD v0.7 - Point Cloud Data file format
VERSION 0.7
FIELDS x y z
SIZE 4 4 4
TYPE F F F
COUNT 1 1 1
WIDTH 1592
HEIGHT 1
VIEWPOINT 0 0 0 1 0 0 0
POINTS 1592
DATA ascii
0.79000002 -0.07 -0.25925198
0.79000002 -0.090000004 -0.25666144
0.79000002 -0.11 -0.25829741
0.79000002 -0.13 -0.25797316
0.79000002 -0.15000001 -0.25976431
0.79000002 -0.17 -0.25688881
0.79000002 -0.19 -0.25838703
0.79000002 -0.20999999 -0.25501204
0.79000002 -0.23 -0.25494927
0.79000002 -0.25 -0.25621703
0.79000002 -0.27000001 -0.25435901
0.79000002 -0.28999999 -0.25225547
0.79000002 -0.31 -0.25269145
0.79000002 -0.33000001 -0.25432083
0.79000002 -0.34999999 -0.24783882
0.79000002 -0.37 -0.24628121
0.79000002 -0.38999999 -0.24655594
0.79000002 -0.41 -0.24653383
0.79000002 -0.43000001 -0.24882574
0.79000002 -0.44999999 -0.24692249
0.79000002 -0.47 -0.25198677
0.79000002 -0.49000001 -0.24817389
0.79000002 -0.50999999 -0.24720305
0.79000002 -0.52999997 -0.24714941
0.79000002 -0.55000001 -0.25553402
0.79000002 -0.56999999 -0.25695372
0.76999998 0.58999997 -0.23653786
0.76999998 0.56999999 -0.23856167
0.76999998 0.55000001 -0.23893487
0.76999998 0.52999997 -0.23936893
0.76999998 0.50999999 -0.23906586
0.76999998 0.49000001 -0.23774837
0.76999998 0.47 -0.23803
0.76999998 0.44999999 -0.23661901
0.76999998 0.43000001 -0.23753758
0.76999998 0.41 -0.23714139
0.76999998 0.38999999 -0.23715587
0.76999998 0.37 -0.2370521
0.76999998 0.34999999 -0.23897767
0.76999998 0.33000001 -0.24151354
0.76999998 0.31 -0.24225362
0.76999998 0.28999999 -0.24641111
0.76999998 0.27000001 -0.2460192
0.76999998 0.25 -0.24775268
0.76999998 0.23 -0.24934317
0.76999998 0.20999999 -0.24980915
0.76999998 0.19 -0.24795589
0.76999998 0.17 -0.25075015
0.76999998 0.15000001 -0.25117075
0.76999998 0.13 -0.25118688
0.76999998 0.11 -0.25309041
0.76999998 0.090000004 -0.25490749
0.76999998 0.07 -0.25609392
0.76999998 0.050000001 -0.25741565
0.76999998 0.029999999 -0.25822139
0.76999998 0.0099999998 -0.25582582
0.76999998 -0.0099999998 -0.25718814
0.76999998 -0.029999999 -0.25531909
0.76999998 -0.050000001 -0.25598949
0.76999998 -0.07 -0.25738123
0.76999998 -0.090000004 -0.25580415
0.76999998 -0.11 -0.25401771
0.76999998 -0.13 -0.25466004
0.76999998 -0.15000001 -0.25466493
0.76999998 -0.17 -0.25080121
0.76999998 -0.19 -0.25492623
0.76999998 -0.20999999 -0.25142661
0.76999998 -0.23 -0.25136021
0.76999998 -0.25 -0.25175142
0.76999998 -0.27000001 -0.25161174
0.76999998 -0.28999999 -0.24956143
0.76999998 -0.31 -0.24754047
0.76999998 -0.33000001 -0.24853893
0.76999998 -0.34999999 -0.24840511
0.76999998 -0.37 -0.24641545
0.76999998 -0.38999999 -0.24487489
0.76999998 -0.41 -0.24581954
0.76999998 -0.43000001 -0.24144505
0.76999998 -0.44999999 -0.24664234
0.76999998 -0.47 -0.24469066
0.76999998 -0.49000001 -0.24431364
0.76999998 -0.50999999 -0.24734092
0.76999998 -0.52999997 -0.24404593
0.76999998 -0.55000001 -0.24725156
0.75 0.58999997 -0.23452069
0.75 0.56999999 -0.23400813
0.75 0.55000001 -0.23506543
0.75 0.52999997 -0.23832662
0.75 0.50999999 -0.23445073
0.75 0.49000001 -0.23588492
0.75 0.47 -0.23741916
0.75 0.44999999 -0.23475204
0.75 0.43000001 -0.23306364
0.75 0.41 -0.23743048
0.75 0.38999999 -0.23847562
0.75 0.37 -0.237203
0.75 0.34999999 -0.23895317
0.75 0.33000001 -0.24007678
0.75 0.31 -0.24093553
0.75 0.28999999 -0.24142921
0.75 0.27000001 -0.24062337
0.75 0.25 -0.24174914
0.75 0.23 -0.24585281
0.75 0.20999999 -0.24720591
0.75 0.19 -0.24888209
0.75 0.17 -0.24865784
0.75 0.15000001 -0.24882784
0.75 0.13 -0.24917974
0.75 0.11 -0.24954759
0.75 0.090000004 -0.25160268
0.75 0.07 -0.25126937
0.75 0.050000001 -0.25138021
0.75 0.029999999 -0.25237703
0.75 0.0099999998 -0.25103396
0.75 -0.0099999998 -0.25182843
0.75 -0.029999999 -0.25160721
0.75 -0.050000001 -0.25223649
0.75 -0.07 -0.25160313
0.75 -0.090000004 -0.25538722
0.75 -0.11 -0.25479147
0.75 -0.13 -0.25007534
0.75 -0.15000001 -0.25137791
0.75 -0.17 -0.24934059
0.75 -0.19 -0.25100178
0.75 -0.20999999 -0.24815589
0.75 -0.23 -0.24887848
0.75 -0.25 -0.24781923
0.75 -0.27000001 -0.24652089
0.75 -0.28999999 -0.24329977
0.75 -0.31 -0.24306284
0.75 -0.33000001 -0.24748246
0.75 -0.34999999 -0.24387652
0.75 -0.37 -0.24032392
0.75 -0.38999999 -0.24019536
0.75 -0.41 -0.24153705
0.75 -0.43000001 -0.24138503
0.75 -0.44999999 -0.24154808
0.75 -0.47 -0.23899692
0.75 -0.49000001 -0.24033181
0.75 -0.50999999 -0.24088712
0.75 -0.52999997 -0.24099751
0.75 -0.55000001 -0.24208046
0.73000002 0.58999997 -0.23187922
0.73000002 0.56999999 -0.2317073
0.73000002 0.55000001 -0.2319441
0.73000002 0.52999997 -0.23121713
0.73000002 0.50999999 -0.23319705
0.73000002 0.49000001 -0.23101172
0.73000002 0.47 -0.23378554
0.73000002 0.44999999 -0.2323917
0.73000002 0.43000001 -0.23166022
0.73000002 0.41 -0.23011957
0.73000002 0.38999999 -0.23220019
0.73000002 0.37 -0.23674326
0.73000002 0.34999999 -0.23716617
0.73000002 0.33000001 -0.23795716
0.73000002 0.31 -0.23869058
0.73000002 0.28999999 -0.23740579
0.73000002 0.27000001 -0.23949787
0.73000002 0.25 -0.23897184
0.73000002 0.23 -0.24086878
0.73000002 0.20999999 -0.2421167
0.73000002 0.19 -0.24935175
0.73000002 0.17 -0.24442518
0.73000002 0.15000001 -0.24639954
0.73000002 0.13 -0.24656644
0.73000002 0.11 -0.24868298
0.73000002 0.090000004 -0.24930644
0.73000002 0.07 -0.24748871
0.73000002 0.050000001 -0.24914914
0.73000002 0.029999999 -0.25153348
0.73000002 0.0099999998 -0.25005579
0.73000002 -0.0099999998 -0.24993549
0.73000002 -0.029999999 -0.25037867
0.73000002 -0.050000001 -0.25005117
0.73000002 -0.07 -0.24748646
0.73000002 -0.090000004 -0.2507664
0.73000002 -0.11 -0.24837932
0.73000002 -0.13 -0.25039795
0.73000002 -0.15000001 -0.25076535
0.73000002 -0.17 -0.248239
0.73000002 -0.19 -0.24930637
0.73000002 -0.20999999 -0.2443572
0.73000002 -0.23 -0.24492505
0.73000002 -0.25 -0.24427485
0.73000002 -0.27000001 -0.24488322
0.73000002 -0.28999999 -0.24177484
0.73000002 -0.31 -0.24084708
0.73000002 -0.33000001 -0.23900206
0.73000002 -0.34999999 -0.24004865
0.73000002 -0.37 -0.23821087
0.73000002 -0.38999999 -0.23740239
0.73000002 -0.41 -0.23707359
0.73000002 -0.43000001 -0.23740909
0.73000002 -0.44999999 -0.23966667
0.73000002 -0.47 -0.23974678
0.73000002 -0.49000001 -0.24065806
0.73000002 -0.50999999 -0.23987852
0.73000002 -0.52999997 -0.2395879
0.70999998 0.56999999 -0.22681573
0.70999998 0.55000001 -0.22999302
0.70999998 0.52999997 -0.23020509
0.70999998 0.50999999 -0.22998449
0.70999998 0.49000001 -0.22869201
0.70999998 0.47 -0.22939673
0.70999998 0.44999999 -0.22784427
0.70999998 0.43000001 -0.22943446
0.70999998 0.41 -0.22938593
0.70999998 0.38999999 -0.23027289
0.70999998 0.37 -0.23104008
0.70999998 0.34999999 -0.23173875
0.70999998 0.33000001 -0.2297422
0.70999998 0.31 -0.23946762
0.70999998 0.28999999 -0.23543674
0.70999998 0.27000001 -0.23538089
0.70999998 0.25 -0.23588063
0.70999998 0.23 -0.23624082
0.70999998 0.20999999 -0.24068666
0.70999998 0.19 -0.24270937
0.70999998 0.17 -0.2475803
0.70999998 0.15000001 -0.2488565
0.70999998 0.13 -0.24539198
0.70999998 0.11 -0.24129331
0.70999998 0.090000004 -0.2486662
0.70999998 0.07 -0.24532464
0.70999998 0.050000001 -0.24943089
0.70999998 0.029999999 -0.24849038
0.70999998 0.0099999998 -0.24893257
0.70999998 -0.0099999998 -0.2438124
0.70999998 -0.029999999 -0.24735305
0.70999998 -0.050000001 -0.24418269
0.70999998 -0.07 -0.24636704
0.70999998 -0.090000004 -0.2473745
0.70999998 -0.11 -0.2496516
0.70999998 -0.13 -0.2485448
0.70999998 -0.15000001 -0.24429974
0.70999998 -0.17 -0.24291523
0.70999998 -0.19 -0.24275447
0.70999998 -0.20999999 -0.24304281
0.70999998 -0.23 -0.24122423
0.70999998 -0.25 -0.24068622
0.70999998 -0.27000001 -0.23612016
0.70999998 -0.28999999 -0.23553886
0.70999998 -0.31 -0.23594913
0.70999998 -0.33000001 -0.23350798
0.70999998 -0.34999999 -0.23360902
0.70999998 -0.37 -0.23192066
0.70999998 -0.38999999 -0.23839684
0.70999998 -0.41 -0.23269042
0.70999998 -0.43000001 -0.23140067
0.70999998 -0.44999999 -0.23449931
0.70999998 -0.47 -0.23479651
0.70999998 -0.49000001 -0.23328115
0.70999998 -0.50999999 -0.23857297
0.70999998 -0.52999997 -0.23490253
0.69 0.56999999 -0.22627138
0.69 0.55000001 -0.22575405
0.69 0.52999997 -0.22583251
0.69 0.50999999 -0.22527707
0.69 0.49000001 -0.22498076
0.69 0.47 -0.2263539
0.69 0.44999999 -0.22372802
0.69 0.43000001 -0.2236018
0.69 0.41 -0.22514749
0.69 0.38999999 -0.22559781
0.69 0.37 -0.22643423
0.69 0.34999999 -0.22694862
0.69 0.33000001 -0.23066023
0.69 0.31 -0.22802624
0.69 0.28999999 -0.23080085
0.69 0.27000001 -0.23344415
0.69 0.25 -0.23077248
0.69 0.23 -0.23418561
0.69 0.20999999 -0.23427047
0.69 0.19 -0.23398624
0.69 0.17 -0.23741494
0.69 0.15000001 -0.23979862
0.69 0.13 -0.24077015
0.69 0.11 -0.24270368
0.69 0.090000004 -0.24315266
0.69 0.07 -0.24367483
0.69 0.050000001 -0.2435157
0.69 0.029999999 -0.24132699
0.69 0.0099999998 -0.24305813
0.69 -0.0099999998 -0.24406365
0.69 -0.029999999 -0.24869399
0.69 -0.050000001 -0.24546494
0.69 -0.07 -0.2428773
0.69 -0.090000004 -0.24163371
0.69 -0.11 -0.24117237
0.69 -0.13 -0.24311107
0.69 -0.15000001 -0.24211821
0.69 -0.17 -0.2411792
0.69 -0.19 -0.24224447
0.69 -0.20999999 -0.24217571
0.69 -0.23 -0.23644036
0.69 -0.25 -0.23396231
0.69 -0.27000001 -0.23526885
0.69 -0.28999999 -0.23441219
0.69 -0.31 -0.23382615
0.69 -0.33000001 -0.23120847
0.69 -0.34999999 -0.23003326
0.69 -0.37 -0.22920772
0.69 -0.38999999 -0.23121384
0.69 -0.41 -0.22724187
0.69 -0.43000001 -0.23118086
0.69 -0.44999999 -0.23106925
0.69 -0.47 -0.23053622
0.69 -0.49000001 -0.23292103
0.69 -0.50999999 -0.23469345
0.69 -0.52999997 -0.23157255
0.67000002 0.56999999 -0.22112215
0.67000002 0.55000001 -0.22422582
0.67000002 0.52999997 -0.22152343
0.67000002 0.50999999 -0.22431304
0.67000002 0.49000001 -0.22031747
0.67000002 0.47 -0.21954462
0.67000002 0.44999999 -0.22357248
0.67000002 0.43000001 -0.22322427
0.67000002 0.41 -0.22298726
0.67000002 0.38999999 -0.21837503
0.67000002 0.37 -0.21990184
0.67000002 0.34999999 -0.22485979
0.67000002 0.33000001 -0.22688414
0.67000002 0.31 -0.22677289
0.67000002 0.28999999 -0.22773603
0.67000002 0.27000001 -0.23092633
0.67000002 0.25 -0.22690512
0.67000002 0.23 -0.23161024
0.67000002 0.20999999 -0.23237489
0.67000002 0.19 -0.23326567
0.67000002 0.17 -0.2364302
0.67000002 0.15000001 -0.23782682
0.67000002 0.13 -0.23643772
0.67000002 0.11 -0.23658504
0.67000002 0.090000004 -0.23788159
0.67000002 0.07 -0.24136306
0.67000002 0.050000001 -0.24061157
0.67000002 0.029999999 -0.24179745
0.67000002 0.0099999998 -0.24242333
0.67000002 -0.0099999998 -0.2405562
0.67000002 -0.029999999 -0.23614368
0.67000002 -0.050000001 -0.24153182
0.67000002 -0.07 -0.23823079
0.67000002 -0.090000004 -0.23407485
0.67000002 -0.11 -0.23707449
0.67000002 -0.13 -0.23571423
0.67000002 -0.15000001 -0.23527689
0.67000002 -0.17 -0.23781687
0.67000002 -0.19 -0.23730794
0.67000002 -0.20999999 -0.23532577
0.67000002 -0.23 -0.23554131
0.67000002 -0.25 -0.2286143
0.67000002 -0.27000001 -0.22951823
0.67000002 -0.28999999 -0.23200557
0.67000002 -0.31 -0.2278945
0.67000002 -0.33000001 -0.22785389
0.67000002 -0.34999999 -0.22643647
0.67000002 -0.37 -0.22750317
0.67000002 -0.38999999 -0.22828324
0.67000002 -0.41 -0.23104961
0.67000002 -0.43000001 -0.2284967
0.67000002 -0.44999999 -0.22648644
0.67000002 -0.47 -0.2287517
0.67000002 -0.49000001 -0.22828406
0.67000002 -0.50999999 -0.22858405
0.67000002 -0.52999997 -0.22795425
0.64999998 0.55000001 -0.21984582
0.64999998 0.52999997 -0.21673797
0.64999998 0.50999999 -0.21942955
0.64999998 0.49000001 -0.21847518
0.64999998 0.47 -0.21706127
0.64999998 0.44999999 -0.21859875
0.64999998 0.43000001 -0.21545784
0.64999998 0.41 -0.21781535
0.64999998 0.38999999 -0.21674691
0.64999998 0.37 -0.21798657
0.64999998 0.34999999 -0.21945192
0.64999998 0.33000001 -0.22078532
0.64999998 0.31 -0.22174802
0.64999998 0.28999999 -0.22077756
0.64999998 0.27000001 -0.22766444
0.64999998 0.25 -0.22549933
0.64999998 0.23 -0.22557947
0.64999998 0.20999999 -0.2273951
0.64999998 0.19 -0.2426661
0.64999998 0.17 -0.24524705
0.64999998 0.15000001 -0.24709564
0.64999998 0.13 -0.25001875
0.64999998 0.11 -0.25112519
0.64999998 0.090000004 -0.25029135
0.64999998 0.07 -0.25003791
0.64999998 0.050000001 -0.24659476
0.64999998 0.029999999 -0.25476274
0.64999998 0.0099999998 -0.25638086
0.64999998 -0.0099999998 -0.25667679
0.64999998 -0.029999999 -0.25416669
0.64999998 -0.050000001 -0.24674605
0.64999998 -0.07 -0.25397572
0.64999998 -0.090000004 -0.25512856
0.64999998 -0.11 -0.25317863
0.64999998 -0.13 -0.24802428
0.64999998 -0.15000001 -0.24505921
0.64999998 -0.17 -0.2516
0.64999998 -0.19 -0.24707007
0.64999998 -0.20999999 -0.24302781
0.64999998 -0.23 -0.24278407
0.64999998 -0.25 -0.23912436
0.64999998 -0.27000001 -0.23627719
0.64999998 -0.28999999 -0.23462123
0.64999998 -0.31 -0.23335432
0.64999998 -0.33000001 -0.23184888
0.64999998 -0.34999999 -0.23163421
0.64999998 -0.37 -0.23091117
0.64999998 -0.38999999 -0.23050019
0.64999998 -0.41 -0.23148005
0.64999998 -0.43000001 -0.23087656
0.64999998 -0.44999999 -0.22631113
0.64999998 -0.47 -0.22403942
0.64999998 -0.49000001 -0.22467226
0.64999998 -0.50999999 -0.22451368
0.63 0.55000001 -0.21542946
0.63 0.52999997 -0.21551231
0.63 0.50999999 -0.21580067
0.63 0.49000001 -0.21652615
0.63 0.47 -0.21735741
0.63 0.44999999 -0.2145056
0.63 0.43000001 -0.22033019
0.63 0.41 -0.22026438
0.63 0.38999999 -0.22072907
0.63 0.37 -0.2215201
0.63 0.34999999 -0.22272611
0.63 0.33000001 -0.23023164
0.63 0.31 -0.23040113
0.63 0.28999999 -0.23026866
0.63 0.27000001 -0.23061453
0.63 0.25 -0.23495436
0.63 0.23 -0.23728003
0.63 0.20999999 -0.23812214
0.63 0.19 -0.23599997
0.63 0.17 -0.2324627
0.63 0.15000001 -0.23608527
0.63 0.13 -0.22913608
0.63 0.11 -0.23529013
0.63 0.090000004 -0.23110452
0.63 0.07 -0.23559256
0.63 0.050000001 -0.24175584
0.63 0.029999999 -0.23373865
0.63 0.0099999998 -0.2308225
0.63 -0.0099999998 -0.23177233
0.63 -0.029999999 -0.24144052
0.63 -0.050000001 -0.23580173
0.63 -0.07 -0.23657753
0.63 -0.090000004 -0.23494208
0.63 -0.11 -0.235625
0.63 -0.13 -0.23431537
0.63 -0.15000001 -0.23232114
0.63 -0.17 -0.22934598
0.63 -0.19 -0.23499551
0.63 -0.20999999 -0.23374419
0.63 -0.23 -0.22818403
0.63 -0.25 -0.22737928
0.63 -0.27000001 -0.22966921
0.63 -0.28999999 -0.23019381
0.63 -0.31 -0.22656769
0.63 -0.33000001 -0.22306274
0.63 -0.34999999 -0.22116287
0.63 -0.37 -0.22147352
0.63 -0.38999999 -0.22558245
0.63 -0.41 -0.21803884
0.63 -0.43000001 -0.22331066
0.63 -0.44999999 -0.22179341
0.63 -0.47 -0.2229882
0.63 -0.49000001 -0.2208115
0.63 -0.50999999 -0.22263126
0.61000001 0.55000001 -0.20940582
0.61000001 0.52999997 -0.21073005
0.61000001 0.50999999 -0.21123284
0.61000001 0.49000001 -0.21378124
0.61000001 0.47 -0.21110071
0.61000001 0.44999999 -0.21103759
0.61000001 0.43000001 -0.21184672
0.61000001 0.41 -0.2152871
0.61000001 0.38999999 -0.21238899
0.61000001 0.37 -0.21139178
0.61000001 0.34999999 -0.21360123
0.61000001 0.33000001 -0.21606146
0.61000001 0.31 -0.21749164
0.61000001 0.28999999 -0.21764487
0.61000001 0.27000001 -0.21658507
0.61000001 0.25 -0.21726508
0.61000001 0.23 -0.21921243
0.61000001 0.20999999 -0.22028399
0.61000001 0.19 -0.22058465
0.61000001 0.17 -0.21869504
0.61000001 0.15000001 -0.22162385
0.61000001 0.13 -0.2256588
0.61000001 0.11 -0.22314438
0.61000001 0.090000004 -0.22034413
0.61000001 0.07 -0.22464438
0.61000001 0.050000001 -0.21950956
0.61000001 0.029999999 -0.22506616
0.61000001 0.0099999998 -0.22202419
0.61000001 -0.0099999998 -0.22297686
0.61000001 -0.029999999 -0.22756386
0.61000001 -0.050000001 -0.22236307
0.61000001 -0.07 -0.22643228
0.61000001 -0.090000004 -0.22646101
0.61000001 -0.11 -0.2267971
0.61000001 -0.13 -0.22724158
0.61000001 -0.15000001 -0.22698791
0.61000001 -0.17 -0.22484392
0.61000001 -0.19 -0.22365068
0.61000001 -0.20999999 -0.22076194
0.61000001 -0.23 -0.22229467
0.61000001 -0.25 -0.22057839
0.61000001 -0.27000001 -0.21500005
0.61000001 -0.28999999 -0.21450332
0.61000001 -0.31 -0.21321362
0.61000001 -0.33000001 -0.21320094
0.61000001 -0.34999999 -0.21256581
0.61000001 -0.37 -0.21313515
0.61000001 -0.38999999 -0.21507792
0.61000001 -0.41 -0.21323101
0.61000001 -0.43000001 -0.21412882
0.61000001 -0.44999999 -0.2154302
0.61000001 -0.47 -0.21882854
0.61000001 -0.49000001 -0.21854033
0.61000001 -0.50999999 -0.22080652
0.58999997 0.55000001 -0.2078948
0.58999997 0.52999997 -0.20612206
0.58999997 0.50999999 -0.20671256
0.58999997 0.49000001 -0.20662203
0.58999997 0.47 -0.20484497
0.58999997 0.44999999 -0.2098888
0.58999997 0.43000001 -0.20759308
0.58999997 0.41 -0.21147367
0.58999997 0.38999999 -0.20955731
0.58999997 0.37 -0.20955698
0.58999997 0.34999999 -0.21061476
0.58999997 0.33000001 -0.21003421
0.58999997 0.31 -0.21196058
0.58999997 0.28999999 -0.2117708
0.58999997 0.27000001 -0.21278442
0.58999997 0.25 -0.21171504
0.58999997 0.23 -0.2170549
0.58999997 0.20999999 -0.22047712
0.58999997 0.19 -0.2164939
0.58999997 0.17 -0.21977521
0.58999997 0.15000001 -0.22044072
0.58999997 0.13 -0.21936379
0.58999997 0.11 -0.22054993
0.58999997 0.090000004 -0.22001839
0.58999997 0.07 -0.22001387
0.58999997 0.050000001 -0.21861103
0.58999997 0.029999999 -0.21881439
0.58999997 0.0099999998 -0.21552196
0.58999997 -0.0099999998 -0.22085038
0.58999997 -0.029999999 -0.22145756
0.58999997 -0.050000001 -0.22290599
0.58999997 -0.07 -0.22011977
0.58999997 -0.090000004 -0.22686492
0.58999997 -0.11 -0.21930838
0.58999997 -0.13 -0.22065386
0.58999997 -0.15000001 -0.22092518
0.58999997 -0.17 -0.22182871
0.58999997 -0.19 -0.21564624
0.58999997 -0.20999999 -0.21441467
0.58999997 -0.23 -0.21779689
0.58999997 -0.25 -0.21556258
0.58999997 -0.27000001 -0.21321706
0.58999997 -0.28999999 -0.21332827
0.58999997 -0.31 -0.21208577
0.58999997 -0.33000001 -0.21198438
0.58999997 -0.34999999 -0.21006103
0.58999997 -0.37 -0.20860216
0.58999997 -0.38999999 -0.21090205
0.58999997 -0.41 -0.21232691
0.58999997 -0.43000001 -0.21215421
0.58999997 -0.44999999 -0.21338165
0.58999997 -0.47 -0.21313511
0.58999997 -0.49000001 -0.21288773
0.58999997 -0.50999999 -0.20969215
0.56999999 0.55000001 -0.20455873
0.56999999 0.52999997 -0.20333365
0.56999999 0.50999999 -0.20363705
0.56999999 0.49000001 -0.20477529
0.56999999 0.47 -0.20358627
0.56999999 0.44999999 -0.20692694
0.56999999 0.43000001 -0.202704
0.56999999 0.41 -0.20481886
0.56999999 0.38999999 -0.20309879
0.56999999 0.37 -0.20308827
0.56999999 0.34999999 -0.20533232
0.56999999 0.33000001 -0.20484479
0.56999999 0.31 -0.20443302
0.56999999 0.28999999 -0.2054628
0.56999999 0.27000001 -0.20614675
0.56999999 0.25 -0.20660073
0.56999999 0.23 -0.21314777
0.56999999 0.20999999 -0.21123859
0.56999999 0.19 -0.21233301
0.56999999 0.17 -0.21191163
0.56999999 0.15000001 -0.21401265
0.56999999 0.13 -0.21317217
0.56999999 0.11 -0.21451598
0.56999999 0.090000004 -0.21944943
0.56999999 0.07 -0.21602243
0.56999999 0.050000001 -0.21490064
0.56999999 0.029999999 -0.21713667
0.56999999 0.0099999998 -0.21390447
0.56999999 -0.0099999998 -0.21325603
0.56999999 -0.029999999 -0.21538271
0.56999999 -0.050000001 -0.21891335
0.56999999 -0.07 -0.22034493
0.56999999 -0.090000004 -0.2161645
0.56999999 -0.11 -0.21590175
0.56999999 -0.13 -0.21414372
0.56999999 -0.15000001 -0.21127518
0.56999999 -0.17 -0.21274923
0.56999999 -0.19 -0.21397603
0.56999999 -0.20999999 -0.21331973
0.56999999 -0.23 -0.21519779
0.56999999 -0.25 -0.21050154
0.56999999 -0.27000001 -0.20998865
0.56999999 -0.28999999 -0.20519997
0.56999999 -0.31 -0.20617916
0.56999999 -0.33000001 -0.20715556
0.56999999 -0.34999999 -0.2051346
0.56999999 -0.37 -0.20688006
0.56999999 -0.38999999 -0.2074537
0.56999999 -0.41 -0.20667595
0.56999999 -0.43000001 -0.20892215
0.56999999 -0.44999999 -0.20995119
0.56999999 -0.47 -0.20855643
0.56999999 -0.49000001 -0.20644075
0.56999999 -0.50999999 -0.20761637
0.55000001 0.52999997 -0.20300475
0.55000001 0.50999999 -0.19862817
0.55000001 0.49000001 -0.20271757
0.55000001 0.47 -0.20175433
0.55000001 0.44999999 -0.19852358
0.55000001 0.43000001 -0.1989612
0.55000001 0.41 -0.19922978
0.55000001 0.38999999 -0.19955835
0.55000001 0.37 -0.19799945
0.55000001 0.34999999 -0.20356384
0.55000001 0.33000001 -0.20203184
0.55000001 0.31 -0.20270175
0.55000001 0.28999999 -0.20250778
0.55000001 0.27000001 -0.20275784
0.55000001 0.25 -0.20504296
0.55000001 0.23 -0.20485456
0.55000001 0.20999999 -0.20469011
0.55000001 0.19 -0.20635851
0.55000001 0.17 -0.20698924
0.55000001 0.15000001 -0.20661648
0.55000001 0.13 -0.2084823
0.55000001 0.11 -0.20873089
0.55000001 0.090000004 -0.2078905
0.55000001 0.07 -0.21272232
0.55000001 0.050000001 -0.21218494
0.55000001 0.029999999 -0.21357721
0.55000001 0.0099999998 -0.2125206
0.55000001 -0.0099999998 -0.21266346
0.55000001 -0.029999999 -0.21344785
0.55000001 -0.050000001 -0.21280733
0.55000001 -0.07 -0.21209106
0.55000001 -0.090000004 -0.21378224
0.55000001 -0.11 -0.21130882
0.55000001 -0.13 -0.21239404
0.55000001 -0.15000001 -0.20877293
0.55000001 -0.17 -0.21301484
0.55000001 -0.19 -0.20893256
0.55000001 -0.20999999 -0.20869586
0.55000001 -0.23 -0.20623668
0.55000001 -0.25 -0.20504087
0.55000001 -0.27000001 -0.20415384
0.55000001 -0.28999999 -0.20565189
0.55000001 -0.31 -0.2027677
0.55000001 -0.33000001 -0.20573263
0.55000001 -0.34999999 -0.2035778
0.55000001 -0.37 -0.20290565
0.55000001 -0.38999999 -0.2047122
0.55000001 -0.41 -0.20515746
0.55000001 -0.43000001 -0.20601414
0.55000001 -0.44999999 -0.20479208
0.55000001 -0.47 -0.20573291
0.55000001 -0.49000001 -0.20713602
0.52999997 0.52999997 -0.19625235
0.52999997 0.50999999 -0.19550632
0.52999997 0.49000001 -0.19668083
0.52999997 0.47 -0.19539069
0.52999997 0.44999999 -0.19632751
0.52999997 0.43000001 -0.19503996
0.52999997 0.41 -0.19719325
0.52999997 0.38999999 -0.19765413
0.52999997 0.37 -0.19742042
0.52999997 0.34999999 -0.19653021
0.52999997 0.33000001 -0.19596063
0.52999997 0.31 -0.19744287
0.52999997 0.28999999 -0.19708116
0.52999997 0.27000001 -0.19821659
0.52999997 0.25 -0.199476
0.52999997 0.23 -0.20469737
0.52999997 0.20999999 -0.20133071
0.52999997 0.19 -0.20248157
0.52999997 0.17 -0.20300485
0.52999997 0.15000001 -0.2055023
0.52999997 0.13 -0.20674981
0.52999997 0.11 -0.20585406
0.52999997 0.090000004 -0.20635603
0.52999997 0.07 -0.20617928
0.52999997 0.050000001 -0.20597203
0.52999997 0.029999999 -0.20883061
0.52999997 0.0099999998 -0.2075879
0.52999997 -0.0099999998 -0.20779935
0.52999997 -0.029999999 -0.20892021
0.52999997 -0.050000001 -0.20858547
0.52999997 -0.07 -0.2062861
0.52999997 -0.090000004 -0.20851727
0.52999997 -0.11 -0.21196309
0.52999997 -0.13 -0.20783763
0.52999997 -0.15000001 -0.20519497
0.52999997 -0.17 -0.20644279
0.52999997 -0.19 -0.20110881
0.52999997 -0.20999999 -0.20396516
0.52999997 -0.23 -0.20068441
0.52999997 -0.25 -0.20262691
0.52999997 -0.27000001 -0.19885981
0.52999997 -0.28999999 -0.19795506
0.52999997 -0.31 -0.19764124
0.52999997 -0.33000001 -0.19892931
0.52999997 -0.34999999 -0.19803448
0.52999997 -0.37 -0.19645964
0.52999997 -0.38999999 -0.19829553
0.52999997 -0.41 -0.19743487
0.52999997 -0.43000001 -0.19980451
0.52999997 -0.44999999 -0.1997029
0.52999997 -0.47 -0.20135532
0.52999997 -0.49000001 -0.20008719
0.50999999 0.52999997 -0.19062348
0.50999999 0.50999999 -0.18993787
0.50999999 0.49000001 -0.19559593
0.50999999 0.47 -0.19162479
0.50999999 0.44999999 -0.1907745
0.50999999 0.43000001 -0.19129239
0.50999999 0.41 -0.19095492
0.50999999 0.38999999 -0.19088723
0.50999999 0.37 -0.19100958
0.50999999 0.34999999 -0.19130854
0.50999999 0.33000001 -0.19177994
0.50999999 0.31 -0.19189648
0.50999999 0.28999999 -0.19261061
0.50999999 0.27000001 -0.194452
0.50999999 0.25 -0.19784226
0.50999999 0.23 -0.19860496
0.50999999 0.20999999 -0.19741319
0.50999999 0.19 -0.19854914
0.50999999 0.17 -0.19979885
0.50999999 0.15000001 -0.20063411
0.50999999 0.13 -0.19897084
0.50999999 0.11 -0.20565921
0.50999999 0.090000004 -0.20585831
0.50999999 0.07 -0.20458263
0.50999999 0.050000001 -0.20600654
0.50999999 0.029999999 -0.20170902
0.50999999 0.0099999998 -0.20052657
0.50999999 -0.0099999998 -0.20481233
0.50999999 -0.029999999 -0.20602128
0.50999999 -0.050000001 -0.20519349
0.50999999 -0.07 -0.20458263
0.50999999 -0.090000004 -0.20639555
0.50999999 -0.11 -0.20700291
0.50999999 -0.13 -0.2057144
0.50999999 -0.15000001 -0.20006454
0.50999999 -0.17 -0.20170571
0.50999999 -0.19 -0.19824523
0.50999999 -0.20999999 -0.19927095
0.50999999 -0.23 -0.19885795
0.50999999 -0.25 -0.1979952
0.50999999 -0.27000001 -0.1992518
0.50999999 -0.28999999 -0.19135107
0.50999999 -0.31 -0.19546683
0.50999999 -0.33000001 -0.19486977
0.50999999 -0.34999999 -0.19263071
0.50999999 -0.37 -0.19639565
0.50999999 -0.38999999 -0.1941026
0.50999999 -0.41 -0.19593084
0.50999999 -0.43000001 -0.19809638
0.50999999 -0.44999999 -0.19763525
0.50999999 -0.47 -0.19779834
0.50999999 -0.49000001 -0.20121677
0.49000001 0.52999997 -0.1877588
0.49000001 0.50999999 -0.18696278
0.49000001 0.49000001 -0.18804421
0.49000001 0.47 -0.18796082
0.49000001 0.44999999 -0.18829098
0.49000001 0.43000001 -0.18437926
0.49000001 0.41 -0.18759614
0.49000001 0.38999999 -0.18850571
0.49000001 0.37 -0.1867291
0.49000001 0.34999999 -0.18868303
0.49000001 0.33000001 -0.18980354
0.49000001 0.31 -0.19120672
0.49000001 0.28999999 -0.19158918
0.49000001 0.27000001 -0.19033688
0.49000001 0.25 -0.1927484
0.49000001 0.23 -0.19466721
0.49000001 0.20999999 -0.19115654
0.49000001 0.19 -0.19702373
0.49000001 0.17 -0.19409379
0.49000001 0.15000001 -0.19812448
0.49000001 0.13 -0.19899136
0.49000001 0.11 -0.19887102
0.49000001 0.090000004 -0.19806324
0.49000001 0.07 -0.19949427
0.49000001 0.050000001 -0.19985993
0.49000001 0.029999999 -0.2010608
0.49000001 0.0099999998 -0.19997437
0.49000001 -0.0099999998 -0.19961521
0.49000001 -0.029999999 -0.1995064
0.49000001 -0.050000001 -0.19894952
0.49000001 -0.07 -0.19885297
0.49000001 -0.090000004 -0.20080014
0.49000001 -0.11 -0.19883326
0.49000001 -0.13 -0.19894306
0.49000001 -0.15000001 -0.19813475
0.49000001 -0.17 -0.19954164
0.49000001 -0.19 -0.19676673
0.49000001 -0.20999999 -0.19476128
0.49000001 -0.23 -0.1932282
0.49000001 -0.25 -0.19043496
0.49000001 -0.27000001 -0.19273809
0.49000001 -0.28999999 -0.19196294
0.49000001 -0.31 -0.19047911
0.49000001 -0.33000001 -0.19075334
0.49000001 -0.34999999 -0.19089743
0.49000001 -0.37 -0.19050516
0.49000001 -0.38999999 -0.19188339
0.49000001 -0.41 -0.19098485
0.49000001 -0.43000001 -0.19213459
0.49000001 -0.44999999 -0.19213296
0.49000001 -0.47 -0.1929211
0.49000001 -0.49000001 -0.19161904
0.47 0.50999999 -0.18457668
0.47 0.49000001 -0.18413451
0.47 0.47 -0.18355286
0.47 0.44999999 -0.18413532
0.47 0.43000001 -0.18511626
0.47 0.41 -0.18384564
0.47 0.38999999 -0.18351918
0.47 0.37 -0.18223891
0.47 0.34999999 -0.18325196
0.47 0.33000001 -0.18434815
0.47 0.31 -0.18554357
0.47 0.28999999 -0.18686301
0.47 0.27000001 -0.18800077
0.47 0.25 -0.1899752
0.47 0.23 -0.18763655
0.47 0.20999999 -0.19121657
0.47 0.19 -0.19050208
0.47 0.17 -0.19026017
0.47 0.15000001 -0.19096473
0.47 0.13 -0.19300352
0.47 0.11 -0.19146417
0.47 0.090000004 -0.19300236
0.47 0.07 -0.19184227
0.47 0.050000001 -0.19544381
0.47 0.029999999 -0.19418685
0.47 0.0099999998 -0.19375117
0.47 -0.0099999998 -0.1946352
0.47 -0.029999999 -0.19767667
0.47 -0.050000001 -0.19329159
0.47 -0.07 -0.19817223
0.47 -0.090000004 -0.19977383
0.47 -0.11 -0.19801615
0.47 -0.13 -0.19415642
0.47 -0.15000001 -0.19314674
0.47 -0.17 -0.192522
0.47 -0.19 -0.19191425
0.47 -0.20999999 -0.19201353
0.47 -0.23 -0.19118865
0.47 -0.25 -0.19372116
0.47 -0.27000001 -0.18546231
0.47 -0.28999999 -0.18462741
0.47 -0.31 -0.18642682
0.47 -0.33000001 -0.19122009
0.47 -0.34999999 -0.18546808
0.47 -0.37 -0.18564679
0.47 -0.38999999 -0.18653791
0.47 -0.41 -0.19092301
0.47 -0.43000001 -0.18999992
0.47 -0.44999999 -0.1894414
0.47 -0.47 -0.19092371
0.44999999 0.50999999 -0.17999299
0.44999999 0.49000001 -0.18548284
0.44999999 0.47 -0.18338349
0.44999999 0.44999999 -0.18289293
0.44999999 0.43000001 -0.18251319
0.44999999 0.41 -0.18247768
0.44999999 0.38999999 -0.18049636
0.44999999 0.37 -0.18095341
0.44999999 0.34999999 -0.18039674
0.44999999 0.33000001 -0.18416898
0.44999999 0.31 -0.18254951
0.44999999 0.28999999 -0.18600033
0.44999999 0.27000001 -0.18365516
0.44999999 0.25 -0.18439713
0.44999999 0.23 -0.18559599
0.44999999 0.20999999 -0.18068409
0.44999999 0.19 -0.18317334
0.44999999 0.17 -0.18734825
0.44999999 0.15000001 -0.19078836
0.44999999 0.13 -0.19018131
0.44999999 0.11 -0.19018131
0.44999999 0.090000004 -0.19021849
0.44999999 0.07 -0.18980397
0.44999999 0.050000001 -0.19018199
0.44999999 0.029999999 -0.19078791
0.44999999 0.0099999998 -0.19143358
0.44999999 -0.0099999998 -0.1914649
0.44999999 -0.029999999 -0.19023956
0.44999999 -0.050000001 -0.19136463
0.44999999 -0.07 -0.18978247
0.44999999 -0.090000004 -0.19064605
0.44999999 -0.11 -0.19107981
0.44999999 -0.13 -0.18671626
0.44999999 -0.15000001 -0.1908585
0.44999999 -0.17 -0.18581937
0.44999999 -0.19 -0.18570045
0.44999999 -0.20999999 -0.18521233
0.44999999 -0.23 -0.18415821
0.44999999 -0.25 -0.18422802
0.44999999 -0.27000001 -0.18207556
0.44999999 -0.28999999 -0.18321979
0.44999999 -0.31 -0.1835663
0.44999999 -0.33000001 -0.18155685
0.44999999 -0.34999999 -0.18288802
0.44999999 -0.37 -0.1821565
0.44999999 -0.38999999 -0.18396486
0.44999999 -0.41 -0.18422799
0.44999999 -0.43000001 -0.1846521
0.44999999 -0.44999999 -0.1847031
0.44999999 -0.47 -0.18581465
0.43000001 0.50999999 -0.1776291
0.43000001 0.49000001 -0.17563245
0.43000001 0.47 -0.1766133
0.43000001 0.44999999 -0.17473614
0.43000001 0.43000001 -0.17724226
0.43000001 0.41 -0.17405996
0.43000001 0.38999999 -0.17769209
0.43000001 0.37 -0.17648624
0.43000001 0.34999999 -0.17560571
0.43000001 0.33000001 -0.17572549
0.43000001 0.31 -0.1767987
0.43000001 0.28999999 -0.17775409
0.43000001 0.27000001 -0.17665996
0.43000001 0.25 -0.17766024
0.43000001 0.23 -0.17885022
0.43000001 0.20999999 -0.18327866
0.43000001 0.19 -0.17983364
0.43000001 0.17 -0.18438342
0.43000001 0.15000001 -0.18283977
0.43000001 0.13 -0.18485494
0.43000001 0.11 -0.18429786
0.43000001 0.090000004 -0.18555063
0.43000001 0.07 -0.1852437
0.43000001 0.050000001 -0.18467179
0.43000001 0.029999999 -0.1835936
0.43000001 0.0099999998 -0.18740322
0.43000001 -0.0099999998 -0.1859327
0.43000001 -0.029999999 -0.18723992
0.43000001 -0.050000001 -0.1837496
0.43000001 -0.07 -0.18627784
0.43000001 -0.090000004 -0.18425255
0.43000001 -0.11 -0.18557143
0.43000001 -0.13 -0.1843795
0.43000001 -0.15000001 -0.1841044
0.43000001 -0.17 -0.18527183
0.43000001 -0.19 -0.18343957
0.43000001 -0.20999999 -0.18027166
0.43000001 -0.23 -0.17934193
0.43000001 -0.25 -0.17652662
0.43000001 -0.27000001 -0.17785455
0.43000001 -0.28999999 -0.17851709
0.43000001 -0.31 -0.17840372
0.43000001 -0.33000001 -0.1771414
0.43000001 -0.34999999 -0.18176487
0.43000001 -0.37 -0.18026325
0.43000001 -0.38999999 -0.17716865
0.43000001 -0.41 -0.18392268
0.43000001 -0.43000001 -0.18316741
0.43000001 -0.44999999 -0.18488482
0.43000001 -0.47 -0.18083869
0.41 0.50999999 -0.17021157
0.41 0.49000001 -0.16877261
0.41 0.47 -0.17203912
0.41 0.44999999 -0.17495045
0.41 0.43000001 -0.17568012
0.41 0.41 -0.17332977
0.41 0.38999999 -0.17613068
0.41 0.37 -0.17093788
0.41 0.34999999 -0.17205143
0.41 0.33000001 -0.17069738
0.41 0.31 -0.1749898
0.41 0.28999999 -0.17459491
0.41 0.27000001 -0.17482603
0.41 0.25 -0.17556018
0.41 0.23 -0.17579186
0.41 0.20999999 -0.17689332
0.41 0.19 -0.17620468
0.41 0.17 -0.17545566
0.41 0.15000001 -0.18010914
0.41 0.13 -0.17855911
0.41 0.11 -0.17856303
0.41 0.090000004 -0.18336037
0.41 0.07 -0.1835835
0.41 0.050000001 -0.18045719
0.41 0.029999999 -0.18096222
0.41 0.0099999998 -0.18402506
0.41 -0.0099999998 -0.18287547
0.41 -0.029999999 -0.18300417
0.41 -0.050000001 -0.18305667
0.41 -0.07 -0.18098132
0.41 -0.090000004 -0.17933349
0.41 -0.11 -0.1787369
0.41 -0.13 -0.17738636
0.41 -0.15000001 -0.17933623
0.41 -0.17 -0.17717549
0.41 -0.19 -0.17648865
0.41 -0.20999999 -0.17719623
0.41 -0.23 -0.17859836
0.41 -0.25 -0.17448668
0.41 -0.27000001 -0.17448364
0.41 -0.28999999 -0.17593542
0.41 -0.31 -0.17467487
0.41 -0.33000001 -0.17717834
0.41 -0.34999999 -0.17589298
0.41 -0.37 -0.17724255
0.41 -0.38999999 -0.1755137
0.41 -0.41 -0.1764273
0.41 -0.43000001 -0.17771594
0.41 -0.44999999 -0.17752981
0.41 -0.47 -0.17776701
0.38999999 0.50999999 -0.16785729
0.38999999 0.49000001 -0.16774148
0.38999999 0.47 -0.16850881
0.38999999 0.44999999 -0.16791041
0.38999999 0.43000001 -0.1692557
0.38999999 0.41 -0.17033367
0.38999999 0.38999999 -0.17045149
0.38999999 0.37 -0.16856679
0.38999999 0.34999999 -0.16908216
0.38999999 0.33000001 -0.1682426
0.38999999 0.31 -0.16914797
0.38999999 0.28999999 -0.16943562
0.38999999 0.27000001 -0.16665763
0.38999999 0.25 -0.17121436
0.38999999 0.23 -0.16943046
0.38999999 0.20999999 -0.17202394
0.38999999 0.19 -0.16869056
0.38999999 0.17 -0.17026262
0.38999999 0.15000001 -0.17230567
0.38999999 0.13 -0.17726089
0.38999999 0.11 -0.17245704
0.38999999 0.090000004 -0.17231497
0.38999999 0.07 -0.17190933
0.38999999 0.050000001 -0.17324319
0.38999999 0.029999999 -0.17430907
0.38999999 0.0099999998 -0.17707355
0.38999999 -0.0099999998 -0.17416845
0.38999999 -0.029999999 -0.17347978
0.38999999 -0.050000001 -0.17293154
0.38999999 -0.07 -0.17662826
0.38999999 -0.090000004 -0.17665389
0.38999999 -0.11 -0.17700186
0.38999999 -0.13 -0.17183013
0.38999999 -0.15000001 -0.17606936
0.38999999 -0.17 -0.17065796
0.38999999 -0.19 -0.17403078
0.38999999 -0.20999999 -0.17039478
0.38999999 -0.23 -0.17185369
0.38999999 -0.25 -0.16946948
0.38999999 -0.27000001 -0.16989544
0.38999999 -0.28999999 -0.1689115
0.38999999 -0.31 -0.17031808
0.38999999 -0.33000001 -0.17291577
0.38999999 -0.34999999 -0.17595759
0.38999999 -0.37 -0.17221455
0.38999999 -0.38999999 -0.17157827
0.38999999 -0.41 -0.17283379
0.38999999 -0.43000001 -0.17246142
0.38999999 -0.44999999 -0.17214251
0.38999999 -0.47 -0.17335255
0.37 0.49000001 -0.16542199
0.37 0.47 -0.1657908
0.37 0.44999999 -0.16679907
0.37 0.43000001 -0.16828206
0.37 0.41 -0.16484165
0.37 0.38999999 -0.16869442
0.37 0.37 -0.16680615
0.37 0.34999999 -0.16538242
0.37 0.33000001 -0.16704172
0.37 0.31 -0.16754533
0.37 0.28999999 -0.16440439
0.37 0.27000001 -0.16160013
0.37 0.25 -0.16472311
0.37 0.23 -0.16874564
0.37 0.20999999 -0.16944543
0.37 0.19 -0.16986538
0.37 0.17 -0.16579983
0.37 0.15000001 -0.16931744
0.37 0.13 -0.16941321
0.37 0.11 -0.16886543
0.37 0.090000004 -0.16898163
0.37 0.07 -0.16938037
0.37 0.050000001 -0.16912279
0.37 0.029999999 -0.16966905
0.37 0.0099999998 -0.17118217
0.37 -0.0099999998 -0.16954084
0.37 -0.029999999 -0.17013918
0.37 -0.050000001 -0.17024317
0.37 -0.07 -0.17228621
0.37 -0.090000004 -0.17133804
0.37 -0.11 -0.17033546
0.37 -0.13 -0.16956152
0.37 -0.15000001 -0.16974312
0.37 -0.17 -0.16763788
0.37 -0.19 -0.16487852
0.37 -0.20999999 -0.1644506
0.37 -0.23 -0.16637371
0.37 -0.25 -0.16793564
0.37 -0.27000001 -0.16507071
0.37 -0.28999999 -0.16561711
0.37 -0.31 -0.16615993
0.37 -0.33000001 -0.16627
0.37 -0.34999999 -0.16908312
0.37 -0.37 -0.17098543
0.37 -0.38999999 -0.17127393
0.37 -0.41 -0.17010044
0.37 -0.43000001 -0.16863407
0.37 -0.44999999 -0.17022893
0.34999999 0.49000001 -0.16215774
0.34999999 0.47 -0.1620947
0.34999999 0.44999999 -0.16283475
0.34999999 0.43000001 -0.16191576
0.34999999 0.41 -0.16092378
0.34999999 0.38999999 -0.16053179
0.34999999 0.37 -0.16158624
0.34999999 0.34999999 -0.16288862
0.34999999 0.33000001 -0.15965471
0.34999999 0.31 -0.16168568
0.34999999 0.28999999 -0.15947053
0.34999999 0.27000001 -0.1608945
0.34999999 0.25 -0.15997534
0.34999999 0.23 -0.1624606
0.34999999 0.20999999 -0.16252029
0.34999999 0.19 -0.16178747
0.34999999 0.17 -0.16189893
0.34999999 0.15000001 -0.16241425
0.34999999 0.13 -0.16337804
0.34999999 0.11 -0.16913153
0.34999999 0.090000004 -0.16438971
0.34999999 0.07 -0.16329458
0.34999999 0.050000001 -0.16680719
0.34999999 0.029999999 -0.16366465
0.34999999 0.0099999998 -0.1641168
0.34999999 -0.0099999998 -0.1638283
0.34999999 -0.029999999 -0.1643718
0.34999999 -0.050000001 -0.16303313
0.34999999 -0.07 -0.16893917
0.34999999 -0.090000004 -0.16556376
0.34999999 -0.11 -0.16372356
0.34999999 -0.13 -0.16839214
0.34999999 -0.15000001 -0.16342992
0.34999999 -0.17 -0.16505706
0.34999999 -0.19 -0.16221686
0.34999999 -0.20999999 -0.16726921
0.34999999 -0.23 -0.16022407
0.34999999 -0.25 -0.16141622
0.34999999 -0.27000001 -0.15928826
0.34999999 -0.28999999 -0.16304053
0.34999999 -0.31 -0.16392069
0.34999999 -0.33000001 -0.16436239
0.34999999 -0.34999999 -0.16625951
0.34999999 -0.37 -0.16620603
0.34999999 -0.38999999 -0.16403426
0.34999999 -0.41 -0.16707259
0.34999999 -0.43000001 -0.16887116
0.34999999 -0.44999999 -0.16979735
0.33000001 0.49000001 -0.15781599
0.33000001 0.47 -0.15807699
0.33000001 0.44999999 -0.15656671
0.33000001 0.43000001 -0.15817513
0.33000001 0.41 -0.15733823
0.33000001 0.38999999 -0.1588057
0.33000001 0.37 -0.15679231
0.33000001 0.34999999 -0.1564108
0.33000001 0.33000001 -0.15674236
0.33000001 0.31 -0.15576066
0.33000001 0.28999999 -0.15452483
0.33000001 0.27000001 -0.15623988
0.33000001 0.25 -0.15996978
0.33000001 0.23 -0.16112465
0.33000001 0.20999999 -0.15782978
0.33000001 0.19 -0.15729417
0.33000001 0.17 -0.15706874
0.33000001 0.15000001 -0.16007145
0.33000001 0.13 -0.156995
0.33000001 0.11 -0.16109557
0.33000001 0.090000004 -0.15919422
0.33000001 0.07 -0.15658282
0.33000001 0.050000001 -0.15872882
0.33000001 0.029999999 -0.16159141
0.33000001 0.0099999998 -0.15951869
0.33000001 -0.0099999998 -0.1589808
0.33000001 -0.029999999 -0.15922676
0.33000001 -0.050000001 -0.16444835
0.33000001 -0.07 -0.16229272
0.33000001 -0.090000004 -0.16155371
0.33000001 -0.11 -0.16221793
0.33000001 -0.13 -0.15855643
0.33000001 -0.15000001 -0.16162947
0.33000001 -0.17 -0.16051099
0.33000001 -0.19 -0.1559184
0.33000001 -0.20999999 -0.15806986
0.33000001 -0.23 -0.15605117
0.33000001 -0.25 -0.15558469
0.33000001 -0.27000001 -0.15592773
0.33000001 -0.28999999 -0.15488191
0.33000001 -0.31 -0.15485035
0.33000001 -0.33000001 -0.15888306
0.33000001 -0.34999999 -0.15918222
0.33000001 -0.37 -0.16185598
0.33000001 -0.38999999 -0.15960056
0.33000001 -0.41 -0.16229321
0.33000001 -0.43000001 -0.16233362
0.33000001 -0.44999999 -0.16402763
0.31 0.47 -0.15717249
0.31 0.44999999 -0.15512756
0.31 0.43000001 -0.15587515
0.31 0.41 -0.15601224
0.31 0.38999999 -0.15554279
0.31 0.37 -0.15731868
0.31 0.34999999 -0.15457711
0.31 0.33000001 -0.15497948
0.31 0.31 -0.15306795
0.31 0.28999999 -0.15537617
0.31 0.27000001 -0.15277921
0.31 0.25 -0.15101857
0.31 0.23 -0.15431869
0.31 0.20999999 -0.15477175
0.31 0.19 -0.15454826
0.31 0.17 -0.15219216
0.31 0.15000001 -0.15482858
0.31 0.13 -0.15492202
0.31 0.11 -0.15466572
0.31 0.090000004 -0.1550651
0.31 0.07 -0.15504856
0.31 0.050000001 -0.15431738
0.31 0.029999999 -0.15675685
0.31 0.0099999998 -0.15586136
0.31 -0.0099999998 -0.15852997
0.31 -0.029999999 -0.15791006
0.31 -0.050000001 -0.15756091
0.31 -0.07 -0.15662079
0.31 -0.090000004 -0.15688728
0.31 -0.11 -0.15474831
0.31 -0.13 -0.1558226
0.31 -0.15000001 -0.15479031
0.31 -0.17 -0.15568967
0.31 -0.19 -0.15325014
0.31 -0.20999999 -0.15379915
0.31 -0.23 -0.15354882
0.31 -0.25 -0.15467417
0.31 -0.27000001 -0.15273878
0.31 -0.28999999 -0.15522364
0.31 -0.31 -0.15434556
0.31 -0.33000001 -0.156353
0.31 -0.34999999 -0.15548012
0.31 -0.37 -0.1544006
0.31 -0.38999999 -0.15739718
0.31 -0.41 -0.15688345
0.31 -0.43000001 -0.15651846
0.31 -0.44999999 -0.15865342
0.28999999 0.47 -0.15032288
0.28999999 0.44999999 -0.15245979
0.28999999 0.43000001 -0.15090969
0.28999999 0.41 -0.15277179
0.28999999 0.38999999 -0.15067296
0.28999999 0.37 -0.15444835
0.28999999 0.34999999 -0.14881498
0.28999999 0.33000001 -0.15099899
0.28999999 0.31 -0.14856422
0.28999999 0.28999999 -0.14745352
0.28999999 0.27000001 -0.14792658
0.28999999 0.25 -0.14851205
0.28999999 0.23 -0.14689924
0.28999999 0.20999999 -0.1525625
0.28999999 0.19 -0.14894459
0.28999999 0.17 -0.14944828
0.28999999 0.15000001 -0.14944078
0.28999999 0.13 -0.1503873
0.28999999 0.11 -0.15034337
0.28999999 0.090000004 -0.14923477
0.28999999 0.07 -0.15041703
0.28999999 0.050000001 -0.15125589
0.28999999 0.029999999 -0.15556353
0.28999999 0.0099999998 -0.15445726
0.28999999 -0.0099999998 -0.1520922
0.28999999 -0.029999999 -0.15112171
0.28999999 -0.050000001 -0.14937595
0.28999999 -0.07 -0.15427941
0.28999999 -0.090000004 -0.15505476
0.28999999 -0.11 -0.1497145
0.28999999 -0.13 -0.15456352
0.28999999 -0.15000001 -0.15146017
0.28999999 -0.17 -0.14900318
0.28999999 -0.19 -0.15076439
0.28999999 -0.20999999 -0.14836606
0.28999999 -0.23 -0.15115064
0.28999999 -0.25 -0.14783062
0.28999999 -0.27000001 -0.1485244
0.28999999 -0.28999999 -0.14938238
0.28999999 -0.31 -0.14955735
0.28999999 -0.33000001 -0.15417606
0.28999999 -0.34999999 -0.15157618
0.28999999 -0.37 -0.15554748
0.28999999 -0.38999999 -0.1540083
0.28999999 -0.41 -0.15602523
0.28999999 -0.43000001 -0.15370572
0.27000001 0.47 -0.1482569
0.27000001 0.44999999 -0.14919353
0.27000001 0.43000001 -0.14823227
0.27000001 0.41 -0.14777899
0.27000001 0.38999999 -0.14775316
0.27000001 0.37 -0.14487898
0.27000001 0.34999999 -0.14664035
0.27000001 0.33000001 -0.14383183
0.27000001 0.31 -0.14373015
0.27000001 0.28999999 -0.14356986
0.27000001 0.27000001 -0.14417592
0.27000001 0.25 -0.14819129
0.27000001 0.23 -0.14524218
0.27000001 0.20999999 -0.14802696
0.27000001 0.19 -0.14571787
0.27000001 0.17 -0.14776373
0.27000001 0.15000001 -0.14773253
0.27000001 0.13 -0.14743142
0.27000001 0.11 -0.14782131
0.27000001 0.090000004 -0.14827216
0.27000001 0.07 -0.14952205
0.27000001 0.050000001 -0.14714612
0.27000001 0.029999999 -0.14835154
0.27000001 0.0099999998 -0.14829877
0.27000001 -0.0099999998 -0.14836541
0.27000001 -0.029999999 -0.14735101
0.27000001 -0.050000001 -0.14879811
0.27000001 -0.07 -0.14698547
0.27000001 -0.090000004 -0.14672369
0.27000001 -0.11 -0.14878358
0.27000001 -0.13 -0.14714746
0.27000001 -0.15000001 -0.14862408
0.27000001 -0.17 -0.14724489
0.27000001 -0.19 -0.14861357
0.27000001 -0.20999999 -0.15099819
0.27000001 -0.23 -0.14849225
0.27000001 -0.25 -0.14817958
0.27000001 -0.27000001 -0.14893544
0.27000001 -0.28999999 -0.14495637
0.27000001 -0.31 -0.14935993
0.27000001 -0.33000001 -0.14931355
0.27000001 -0.34999999 -0.14833666
0.27000001 -0.37 -0.15522312
0.27000001 -0.38999999 -0.1546765
0.27000001 -0.41 -0.1560744
0.27000001 -0.43000001 -0.151833
0.25 0.47 -0.14514619
0.25 0.44999999 -0.14349805
0.25 0.43000001 -0.14756414
0.25 0.41 -0.14124347
0.25 0.38999999 -0.14341836
0.25 0.37 -0.14413559
0.25 0.34999999 -0.1438771
0.25 0.33000001 -0.14204627
0.25 0.31 -0.14090797
0.25 0.28999999 -0.14038424
0.25 0.27000001 -0.14001125
0.25 0.25 -0.14148527
0.25 0.23 -0.14176039
0.25 0.20999999 -0.14379245
0.25 0.19 -0.14110944
0.25 0.17 -0.14294247
0.25 0.15000001 -0.14261682
0.25 0.13 -0.14317672
0.25 0.11 -0.14163117
0.25 0.090000004 -0.143153
0.25 0.07 -0.14099179
0.25 0.050000001 -0.14147682
0.25 0.029999999 -0.14329778
0.25 0.0099999998 -0.14273812
0.25 -0.0099999998 -0.14211255
0.25 -0.029999999 -0.14130116
0.25 -0.050000001 -0.14689156
0.25 -0.07 -0.14114918
0.25 -0.090000004 -0.14412285
0.25 -0.11 -0.14184788
0.25 -0.13 -0.14677921
0.25 -0.15000001 -0.14299744
0.25 -0.17 -0.14308085
0.25 -0.19 -0.14085029
0.25 -0.20999999 -0.14699998
0.25 -0.23 -0.14119892
0.25 -0.25 -0.14024884
0.25 -0.27000001 -0.1407977
0.25 -0.28999999 -0.14187677
0.25 -0.31 -0.14354938
0.25 -0.33000001 -0.14892459
0.25 -0.34999999 -0.14850956
0.25 -0.37 -0.14808477
0.25 -0.38999999 -0.14913405
0.25 -0.41 -0.14750846
0.25 -0.43000001 -0.14951849
0.23 0.47 -0.14100863
0.23 0.44999999 -0.14002046
0.23 0.43000001 -0.13974577
0.23 0.41 -0.14145726
0.23 0.38999999 -0.14258254
0.23 0.37 -0.14141987
0.23 0.34999999 -0.14161777
0.23 0.33000001 -0.14218624
0.23 0.31 -0.14240885
0.23 0.28999999 -0.13727134
0.23 0.27000001 -0.13929951
0.23 0.25 -0.13594928
0.23 0.23 -0.13635443
0.23 0.20999999 -0.14020729
0.23 0.19 -0.13727446
0.23 0.17 -0.14231578
0.23 0.15000001 -0.14211427
0.23 0.13 -0.13713646
0.23 0.11 -0.13681945
0.23 0.090000004 -0.13660595
0.23 0.07 -0.13657035
0.23 0.050000001 -0.14177363
0.23 0.029999999 -0.140554
0.23 0.0099999998 -0.14135741
0.23 -0.0099999998 -0.14014606
0.23 -0.029999999 -0.14145342
0.23 -0.050000001 -0.14029118
0.23 -0.07 -0.13756435
0.23 -0.090000004 -0.14091556
0.23 -0.11 -0.13801141
0.23 -0.13 -0.14034507
0.23 -0.15000001 -0.14013401
0.23 -0.17 -0.14096443
0.23 -0.19 -0.13992801
0.23 -0.20999999 -0.13743278
0.23 -0.23 -0.13948643
0.23 -0.25 -0.14029455
0.23 -0.27000001 -0.13664109
0.23 -0.28999999 -0.13968478
0.23 -0.31 -0.14032812
0.23 -0.33000001 -0.14707048
0.23 -0.34999999 -0.14298309
0.23 -0.37 -0.1470897
0.23 -0.38999999 -0.14134678
0.23 -0.41 -0.14335628
0.23 -0.43000001 -0.14492011
0.20999999 0.47 -0.13724492
0.20999999 0.44999999 -0.1397869
0.20999999 0.43000001 -0.1409025
0.20999999 0.41 -0.13749155
0.20999999 0.38999999 -0.13627872
0.20999999 0.37 -0.13960135
0.20999999 0.34999999 -0.13842636
0.20999999 0.33000001 -0.13566016
0.20999999 0.31 -0.1377371
0.20999999 0.28999999 -0.135879
0.20999999 0.27000001 -0.13357937
0.20999999 0.25 -0.13310593
0.20999999 0.23 -0.13391449
0.20999999 0.20999999 -0.13292263
0.20999999 0.19 -0.13277835
0.20999999 0.17 -0.13584927
0.20999999 0.15000001 -0.13422981
0.20999999 0.13 -0.13582486
0.20999999 0.11 -0.1344327
0.20999999 0.090000004 -0.13292472
0.20999999 0.07 -0.13229157
0.20999999 0.050000001 -0.1346958
0.20999999 0.029999999 -0.1368459
0.20999999 0.0099999998 -0.13356832
0.20999999 -0.0099999998 -0.13564433
0.20999999 -0.029999999 -0.1351891
0.20999999 -0.050000001 -0.13442792
0.20999999 -0.07 -0.13596757
0.20999999 -0.090000004 -0.13679713
0.20999999 -0.11 -0.14179836
0.20999999 -0.13 -0.14188693
0.20999999 -0.15000001 -0.13844974
0.20999999 -0.17 -0.13668303
0.20999999 -0.19 -0.13466945
0.20999999 -0.20999999 -0.13385765
0.20999999 -0.23 -0.13512371
0.20999999 -0.25 -0.13416132
0.20999999 -0.27000001 -0.13471162
0.20999999 -0.28999999 -0.13594624
0.20999999 -0.31 -0.13824913
0.20999999 -0.33000001 -0.13659461
0.20999999 -0.34999999 -0.14288147
0.20999999 -0.37 -0.14071077
0.20999999 -0.38999999 -0.14170627
0.20999999 -0.41 -0.14105348
0.20999999 -0.43000001 -0.13939896
0.19 0.44999999 -0.13889019
0.19 0.43000001 -0.13449422
0.19 0.41 -0.13475475
0.19 0.38999999 -0.135418
0.19 0.37 -0.13470148
0.19 0.34999999 -0.13640922
0.19 0.33000001 -0.13540518
0.19 0.31 -0.13416097
0.19 0.28999999 -0.1339651
0.19 0.27000001 -0.1332337
0.19 0.25 -0.13039583
0.19 0.23 -0.13251501
0.19 0.20999999 -0.13315728
0.19 0.19 -0.13108686
0.19 0.17 -0.13286151
0.19 0.15000001 -0.13161136
0.19 0.13 -0.1342334
0.19 0.11 -0.1330429
0.19 0.090000004 -0.13447638
0.19 0.07 -0.13398069
0.19 0.050000001 -0.13342574
0.19 0.029999999 -0.13021769
0.19 0.0099999998 -0.13468277
0.19 -0.0099999998 -0.13350439
0.19 -0.029999999 -0.13241936
0.19 -0.050000001 -0.1298487
0.19 -0.07 -0.13399075
0.19 -0.090000004 -0.13393235
0.19 -0.11 -0.13373032
0.19 -0.13 -0.13376042
0.19 -0.15000001 -0.13343598
0.19 -0.17 -0.13313593
0.19 -0.19 -0.13270524
0.19 -0.20999999 -0.13420554
0.19 -0.23 -0.13396022
0.19 -0.25 -0.13087161
0.19 -0.27000001 -0.13487263
0.19 -0.28999999 -0.13508299
0.19 -0.31 -0.13664617
0.19 -0.33000001 -0.13601029
0.19 -0.34999999 -0.13435993
0.19 -0.37 -0.13799065
0.19 -0.38999999 -0.13959242
0.19 -0.41 -0.14131221
0.19 -0.43000001 -0.13650945
0.17 0.44999999 -0.13419166
0.17 0.43000001 -0.13525145
0.17 0.41 -0.13374762
0.17 0.38999999 -0.13375305
0.17 0.37 -0.13344169
0.17 0.34999999 -0.13284595
0.17 0.33000001 -0.1279887
0.17 0.31 -0.12898628
0.17 0.28999999 -0.12881328
0.17 0.27000001 -0.13251199
0.17 0.25 -0.12839104
0.17 0.23 -0.13292103
0.17 0.20999999 -0.13065034
0.17 0.19 -0.13097128
0.17 0.17 -0.12671256
0.17 0.15000001 -0.12814949
0.17 0.13 -0.13159917
0.17 0.11 -0.12544245
0.17 0.090000004 -0.1291606
0.17 0.07 -0.12813102
0.17 0.050000001 -0.12805055
0.17 0.029999999 -0.13010609
0.17 0.0099999998 -0.13013823
0.17 -0.0099999998 -0.13325785
0.17 -0.029999999 -0.12922683
0.17 -0.050000001 -0.12713476
0.17 -0.07 -0.12932757
0.17 -0.090000004 -0.13019763
0.17 -0.11 -0.12779912
0.17 -0.13 -0.12974574
0.17 -0.15000001 -0.12851612
