# .PCD v0.7 - Point Cloud Data file format
VERSION 0.7
FIELDS x y z
SIZE 4 4 4
TYPE F F F
COUNT 1 1 1
WIDTH 1486
HEIGHT 1
VIEWPOINT 0 0 0 1 0 0 0
POINTS 1486
DATA ascii
-0.26041913 0.45734853 1.6145543
-0.24287944 0.45972645 1.6154051
-0.22463916 0.45975885 1.6129465
-0.20757112 0.45980346 1.6108168
-0.18634273 0.46159774 1.6130625
-0.17118806 0.46018434 1.6118557
-0.15284704 0.45908758 1.6083962
-0.13486177 0.45928022 1.611173
-0.11840028 0.45788935 1.6118159
-0.10000288 0.45505169 1.6036334
-0.079361759 0.45436671 1.6073855
-0.064312018 0.45863864 1.6098946
-0.052444465 0.45252624 1.6024376
-0.024926752 0.45562693 1.6101722
-0.012422922 0.45373145 1.60375
0.012666101 0.45209789 1.6176875
0.029357839 0.45586482 1.6046895
0.043987866 0.4576444 1.6074743
0.062647656 0.45864445 1.6088688
0.079271525 0.45532319 1.6074134
0.10010258 0.45716888 1.6031153
0.11753432 0.45683214 1.6048037
0.13405202 0.45681277 1.6081717
0.15381019 0.45422614 1.607414
0.16722859 0.45344526 1.6033183
0.20821501 0.45550027 1.6099075
0.21859452 0.45289716 1.6080501
0.25194201 0.45315295 1.6166251
0.26279387 0.45888054 1.6132908
0.27895805 0.4587355 1.6119412
0.29467523 0.45345888 1.6039834
0.31838402 0.45467332 1.6108811
0.3328678 0.45866793 1.6091192
0.35092074 0.45852494 1.6117553
0.36340511 0.46044749 1.6119424
0.40351647 0.45047346 1.6118751
0.42912462 0.45199183 1.6104287
0.44172364 0.45428687 1.6086718
0.48105255 0.45926613 1.6115646
0.49358329 0.45544535 1.6119359
0.50890303 0.45423019 1.6118166
0.53843296 0.45057827 1.6122501
0.55113602 0.45748696 1.6125091
0.5660069 0.45642996 1.6112294
0.57842386 0.45233011 1.6061785
0.62585604 0.45495924 1.6134375
0.63869506 0.45720622 1.6115001
0.67980695 0.45134681 1.615
0.69286537 0.45242861 1.6116564
0.71876955 0.4527196 1.6055
0.72536367 0.46166241 1.6039166
-0.72526884 0.48036468 1.6141669
-0.71093827 0.47288623 1.612131
-0.69378299 0.4713116 1.6105314
-0.67428732 0.47076157 1.6096621
-0.65549594 0.4722819 1.6058124
-0.64141816 0.47591889 1.603354
-0.61307663 0.47049162 1.6020001
-0.60126674 0.4730728 1.6102986
-0.58498794 0.47578862 1.6151694
-0.56529593 0.47249889 1.6118087
-0.54861814 0.47520915 1.6110659
-0.5310533 0.47498223 1.6075407
-0.51402545 0.4720287 1.6112334
-0.49401411 0.4746705 1.6073213
-0.47725579 0.47533166 1.6047716
-0.45930839 0.47578299 1.6072501
-0.44270748 0.47271848 1.6041551
-0.41619027 0.47456077 1.6021668
-0.4070074 0.47398639 1.6067232
-0.38642317 0.47028092 1.6028056
-0.32574651 0.47060877 1.6121111
-0.31365108 0.47544664 1.6097107
-0.297672 0.47299731 1.6113865
-0.28542164 0.47252986 1.6089375
-0.23450153 0.47025734 1.6150001
-0.22419816 0.47206181 1.6095003
-0.20507322 0.47111571 1.6048962
-0.18865678 0.47133499 1.6079446
-0.17183264 0.47011653 1.6098931
-0.15069221 0.47122639 1.6038573
-0.13451819 0.47418389 1.6033365
-0.1242243 0.47229767 1.6035835
-0.069175683 0.46915174 1.6020001
0.035317603 0.46915174 1.6020001
0.039361339 0.46944457 1.603
0.2778917 0.46888882 1.6103001
0.33479437 0.47044557 1.60765
0.48064923 0.46832827 1.6083751
0.55592549 0.46829185 1.60825
0.73218358 0.47582132 1.6080736
0.74006855 0.47744033 1.6153752
-0.74040061 0.49375457 1.6167501
-0.73333269 0.49154943 1.6095501
-0.58560902 0.48644122 1.6149167
-0.5403229 0.4872748 1.6087501
-0.53459638 0.48830369 1.6077083
0.74259084 0.48601452 1.6135001
0.76521295 0.49416882 1.6124287
0.78574657 0.49863881 1.6106875
0.80247802 0.50091416 1.61455
0.81565762 0.49676633 1.6147501
-0.84838706 0.52016956 1.6190001
-0.83625191 0.51725292 1.6170001
-0.82442188 0.5211724 1.6158125
-0.79597902 0.52063406 1.6154001
-0.78844154 0.52029526 1.6143501
-0.76156193 0.52047461 1.61575
-0.75015867 0.51408589 1.6112502
0.81612188 0.50634176 1.6094999
-0.89024878 0.53464729 1.6160001
-0.870345 0.53549892 1.611456
-0.85601628 0.53195101 1.6118079
-0.83700216 0.52667606 1.6104611
-0.82285088 0.53299612 1.6117501
-0.79973924 0.53300357 1.611007
-0.78426456 0.53053004 1.6096013
-0.76601237 0.53000939 1.6122743
-0.75463521 0.52523315 1.6096251
-0.87356144 0.54285336 1.6125228
-0.86034793 0.54173374 1.6074501
-0.81677383 0.5454489 1.6049584
-0.7998594 0.54286152 1.6024092
-0.79003471 0.54158974 1.6022501
-0.313638 0.4107089 1.635286
-0.30573708 0.41039994 1.6348335
0.047683422 0.41146666 1.637404
0.064125083 0.41083571 1.635421
0.074339576 0.41187239 1.6352501
0.22347774 0.41339803 1.635875
0.51393098 0.40786999 1.6331928
0.52520019 0.41076151 1.6290836
0.59762245 0.41387185 1.63775
0.66074449 0.40763259 1.6300122
0.67287135 0.40546894 1.6307718
0.69359851 0.40998313 1.6331877
0.70355463 0.41117972 1.6325001
-0.69324183 0.42772001 1.6375194
-0.47332472 0.43039399 1.6328752
-0.4664613 0.43036103 1.63275
-0.42220899 0.42365822 1.6355397
-0.40975848 0.42692834 1.6353
-0.3892501 0.43047854 1.6327274
-0.32865989 0.4318589 1.6332502
-0.31450567 0.42020413 1.6357501
-0.30586174 0.41740692 1.6355001
-0.18511952 0.43155038 1.6320834
-0.16802467 0.42938778 1.6323638
-0.15574473 0.42759535 1.6304851
-0.12900122 0.43032831 1.6300626
-0.12084557 0.42973503 1.630375
-0.095197059 0.42952093 1.63475
-0.081527151 0.42953032 1.6347859
-0.060837246 0.42934281 1.6372
-0.050622266 0.42930841 1.6374168
0.010239746 0.42768046 1.62775
0.026695972 0.42670706 1.6337416
0.045485478 0.42428282 1.6367304
0.063026972 0.4233886 1.6350113
0.079425342 0.42501685 1.6367087
0.099917233 0.42600223 1.6320833
0.11210202 0.42758828 1.6311817
0.13605849 0.42886305 1.6374584
0.15501247 0.42824486 1.6365228
0.16935903 0.42636472 1.6362206
0.19337918 0.42889115 1.6331731
0.20682411 0.42769831 1.6361501
0.22395927 0.4245398 1.6318398
0.24294327 0.42836407 1.6312953
0.26164171 0.42777431 1.6318866
0.27662969 0.42778951 1.631631
0.30030754 0.42508581 1.6330228
0.31329069 0.42287451 1.6354856
0.34173414 0.43159446 1.6322501
0.35283005 0.42313012 1.6280559
0.36716646 0.42360401 1.6264001
0.38524485 0.42862377 1.6298572
0.4070065 0.42948419 1.6277223
0.42342457 0.42429802 1.6275235
0.43908224 0.42991111 1.6273572
0.45856905 0.4261758 1.627622
0.47552475 0.42740455 1.6360877
0.51259017 0.42385456 1.6267669
0.52691752 0.41986907 1.6238543
0.55481863 0.42778751 1.634558
0.56736672 0.42679068 1.629545
0.58536822 0.42441326 1.6286182
0.60055393 0.42325184 1.6338003
0.61823815 0.42947605 1.6252046
0.6403991 0.42906719 1.625643
0.65885687 0.42335162 1.6338876
0.67292088 0.42398891 1.6310626
0.68912613 0.4218199 1.6306609
0.71214777 0.4251236 1.6289868
0.72044212 0.42730856 1.6367501
-0.68979836 0.43926141 1.6373463
-0.68101984 0.44640508 1.6365
-0.60349739 0.44848433 1.6341
-0.56471545 0.44367263 1.6305001
-0.55005282 0.44281468 1.6333721
-0.53120071 0.44239682 1.6271484
-0.51506603 0.44202089 1.6277597
-0.49630305 0.44552341 1.6311845
-0.47640887 0.44235206 1.6306012
-0.46427724 0.44249243 1.6308334
-0.44123289 0.44791177 1.6287084
-0.42274818 0.440566 1.6368929
-0.40451506 0.44421563 1.6323237
-0.38730055 0.44126728 1.6312437
-0.3694573 0.44389698 1.6335262
-0.34966996 0.44383591 1.6322563
-0.33321634 0.44097474 1.6323674
-0.31492159 0.44342569 1.6310214
-0.29437736 0.4472537 1.6303395
-0.27833155 0.44032112 1.6283274
-0.26367965 0.44518507 1.6297309
-0.24127223 0.44198424 1.6329703
-0.22736238 0.44330195 1.633732
-0.20475425 0.44676495 1.6323636
-0.18868415 0.44179708 1.6289026
-0.17099267 0.44123942 1.6275767
-0.15516655 0.44051832 1.6306733
-0.13709323 0.43764505 1.6344582
-0.11143313 0.43434694 1.6323334
-0.098068081 0.43831331 1.6297742
-0.080697954 0.43903026 1.6262593
-0.063722931 0.43686363 1.6292713
-0.046415575 0.43592983 1.6306375
-0.03209142 0.43749535 1.6237501
-0.0073794127 0.43936992 1.6231625
0.0083890948 0.43916002 1.6238545
0.027740825 0.43974859 1.6287503
0.04480366 0.43940443 1.6291002
0.063434832 0.44052726 1.6280093
0.080948979 0.43955746 1.6278194
0.099164106 0.44075361 1.6277667
0.11761221 0.4406682 1.62703
0.13484694 0.4371466 1.6305294
0.15152758 0.43584311 1.6332711
0.17242429 0.43462741 1.6316946
0.18948971 0.435469 1.6280627
0.20637164 0.43821204 1.6260225
0.22034326 0.43345219 1.62695
0.24409539 0.43456709 1.6288959
0.25459623 0.43405604 1.6278334
0.2777119 0.43449742 1.629825
0.29663649 0.43265024 1.6245
0.31301114 0.43839663 1.6262192
0.33537549 0.43913969 1.6233046
0.35069817 0.43989074 1.6257898
0.36729014 0.43294996 1.6245313
0.37832338 0.43246219 1.6252501
0.41296008 0.43580091 1.6225002
0.4243457 0.43890238 1.6254998
0.44032356 0.44028282 1.6253557
0.4570691 0.43818271 1.6208845
0.47882599 0.43838966 1.6314037
0.49423599 0.43787447 1.6322669
0.50974989 0.43327373 1.6283001
0.53817636 0.44018969 1.6236786
0.5488981 0.43976724 1.6246637
0.56667393 0.44079602 1.6277729
0.57818085 0.43987721 1.628525
0.62360746 0.43961862 1.6220919
0.63410658 0.44105902 1.622784
0.6612277 0.43302363 1.6325002
0.67404103 0.43297219 1.6271667
0.69413453 0.4430728 1.6243334
0.71330953 0.44313616 1.6267225
0.72237825 0.44402939 1.6303124
-0.72463512 0.46286944 1.6305001
-0.7134549 0.45228335 1.6298865
-0.69023925 0.45266846 1.6338612
-0.67613703 0.45615524 1.6347611
-0.65446204 0.45535728 1.6277293
-0.63710976 0.45331144 1.6264251
-0.62004203 0.45957801 1.6311187
-0.60323662 0.45622057 1.6293386
-0.58880901 0.45468888 1.6294376
-0.56887347 0.45131552 1.6262501
-0.54639721 0.4519856 1.632643
-0.52815855 0.45458254 1.6222128
-0.51465559 0.45931613 1.6221501
-0.49283716 0.45663878 1.6249167
-0.47550309 0.45181787 1.6242501
-0.45960337 0.45875567 1.6322
-0.44713128 0.45197886 1.6270001
-0.40715292 0.45139527 1.6249167
-0.38469124 0.45301741 1.6287878
-0.3729209 0.45297948 1.6297275
-0.35012603 0.45456761 1.6270128
-0.3311896 0.45603645 1.6277182
-0.31486577 0.45929143 1.626665
-0.29998729 0.45885789 1.62325
-0.25764769 0.45100039 1.6333126
-0.24932903 0.45077601 1.6325001
-0.2239074 0.45200601 1.6301345
-0.20447206 0.45201838 1.6280682
-0.19066498 0.45718634 1.6228498
-0.17101477 0.4517881 1.6218077
-0.15772501 0.45038486 1.6310835
-0.078528516 0.4511463 1.6212143
0.068284959 0.45177162 1.6213751
0.074363649 0.45231038 1.6208751
0.10501593 0.45093709 1.62325
0.11657643 0.45306483 1.6235833
0.42950624 0.45100659 1.6235001
0.4322215 0.45100659 1.6235001
0.54728389 0.451262 1.6211667
0.57182521 0.45255184 1.62515
0.62704456 0.45052043 1.6217501
0.63865888 0.45676288 1.6233914
0.69737542 0.45310867 1.6213057
0.70737129 0.4529449 1.6255833
0.73087871 0.45676306 1.6295
0.74274647 0.46665671 1.6331251
-0.74044162 0.48421177 1.6347501
-0.73158514 0.47649363 1.6330116
-0.50774938 0.47168607 1.6225716
-0.49879915 0.47164601 1.6207001
-0.45767328 0.46801913 1.6355001
-0.32075781 0.46883234 1.6250499
-0.29414994 0.47229183 1.6202956
-0.19231097 0.47006488 1.6236668
0.75057757 0.47894925 1.6319689
0.75998813 0.48337045 1.6308888
0.8234961 0.48519388 1.6258335
-0.74613214 0.49364308 1.6314319
-0.73681808 0.48728451 1.6267501
0.74998927 0.48709702 1.6225001
0.76649642 0.49115896 1.6295835
0.78475964 0.49491403 1.6328655
0.80056971 0.494591 1.631048
0.81591958 0.49419656 1.626476
-0.90290171 0.51220912 1.6368335
-0.89231372 0.51636863 1.6261744
-0.85341769 0.51758146 1.6312118
-0.84017068 0.5176965 1.6351502
-0.81643373 0.51786172 1.633075
-0.80237365 0.51819026 1.6318386
-0.77919018 0.51952398 1.627175
-0.76459277 0.51556063 1.6277499
-0.75179791 0.50723934 1.6267918
-0.88775212 0.52847236 1.6236217
-0.875247 0.52971464 1.6269916
-0.85873026 0.52589726 1.6252956
-0.83082473 0.52309978 1.632375
-0.81951743 0.53035152 1.6293001
-0.80882943 0.52597022 1.6306875
-0.7829318 0.52527887 1.624344
-0.77169263 0.52455568 1.6200001
-0.81745815 0.54136252 1.6230001
0.51113772 0.37666687 1.6548334
0.067637771 0.39408147 1.6553127
0.080091685 0.39437729 1.6540961
0.091886789 0.39349353 1.65575
0.1483869 0.39554518 1.65275
0.51273721 0.38733399 1.6536629
0.5274896 0.39108104 1.6531626
0.55150592 0.38797188 1.6420087
0.56627297 0.38864267 1.6490456
0.58012646 0.39590421 1.65425
0.627913 0.3942858 1.6417501
0.64031339 0.39051014 1.64834
0.65312815 0.38968137 1.65485
-0.56054449 0.4106887 1.6525
-0.55480391 0.41176283 1.6500555
-0.39657977 0.41389364 1.6487501
-0.39011478 0.41240096 1.6494001
-0.30613819 0.4118838 1.6517501
-0.30337569 0.4118838 1.6517501
-0.274037 0.41138089 1.6497501
-0.26646948 0.41147891 1.649025
-0.14976141 0.41151646 1.6550357
-0.14013533 0.41157398 1.6542083
-0.093298815 0.41132724 1.6495279
-0.08172863 0.41083997 1.6507323
-0.064775974 0.41158324 1.653875
0.029294051 0.41112202 1.6481391
0.042615984 0.40916106 1.6484207
0.063278146 0.40403047 1.6528308
0.07964208 0.40424705 1.6528145
0.10205164 0.40653753 1.6488334
0.11767679 0.40883952 1.6443372
0.13572513 0.40642929 1.6449043
0.15327179 0.40538085 1.6500551
0.17074209 0.41143671 1.6536669
0.18999995 0.4060286 1.652796
0.20299377 0.40474215 1.6533751
0.22460636 0.41135752 1.6441251
0.26572296 0.41087711 1.6505002
0.27902728 0.40889466 1.6460434
0.29454201 0.40681133 1.6550564
0.31703651 0.40845105 1.6531947
0.32979241 0.40787265 1.6526667
0.35473731 0.41190714 1.6455358
0.36883175 0.41118798 1.6472694
0.38758799 0.40836066 1.6506195
0.40421104 0.40776297 1.6452422
0.41952509 0.4107706 1.6440001
0.44446146 0.40895441 1.6469063
0.45834357 0.40571555 1.6421751
0.47197688 0.41263846 1.6437501
0.50158226 0.40121049 1.6500715
0.51035494 0.40265992 1.6474701
0.53281128 0.40439039 1.6486859
0.54866093 0.40415329 1.6461277
0.56698614 0.40505037 1.6496778
0.58492309 0.40479949 1.6528075
0.60169655 0.40964365 1.6466913
0.62656361 0.4049077 1.6437955
0.63908023 0.40552142 1.6474401
0.65669745 0.4048264 1.6533897
0.67533582 0.40070209 1.6448594
0.69367445 0.40885246 1.6495
0.7072978 0.41026363 1.6507918
-0.70865035 0.42562369 1.6495682
-0.69433612 0.42486691 1.650968
-0.67539215 0.43013588 1.6528749
-0.63177103 0.43004981 1.6472501
-0.6204614 0.42847142 1.6464791
-0.60289079 0.4292689 1.6463835
-0.58374596 0.42657453 1.6455486
-0.56668055 0.42476612 1.6457918
-0.55137455 0.42341965 1.6448269
-0.52951103 0.42709255 1.6496751
-0.52122009 0.42951781 1.6505001
-0.49279308 0.42885914 1.6462084
-0.47680604 0.42703286 1.6484793
-0.45800439 0.42865103 1.643728
-0.44020656 0.42501536 1.6495179
-0.42446613 0.4174045 1.6508336
-0.40461475 0.42565164 1.6427673
-0.38748956 0.42160934 1.6453274
-0.3635366 0.41929704 1.6498569
-0.35505646 0.42066428 1.6498214
-0.33627057 0.43188563 1.6437501
-0.31308165 0.42710257 1.647575
-0.29950503 0.42429116 1.6507504
-0.27749619 0.42365217 1.6447357
-0.26157883 0.4237363 1.6448722
-0.24304385 0.42409644 1.6425935
-0.22539131 0.42542619 1.6439871
-0.20806098 0.42445037 1.6523027
-0.18623261 0.43025294 1.6445279
-0.17066845 0.42717645 1.6454167
-0.15203154 0.42216939 1.6499863
-0.13546814 0.42295218 1.6498805
-0.11812892 0.42744169 1.6457126
-0.096695974 0.42420468 1.6443049
-0.080510601 0.42227522 1.6475815
-0.063265383 0.42155829 1.6485329
-0.046629988 0.42634952 1.64963
-0.019637017 0.4281241 1.641625
-0.0091017541 0.42537805 1.6398667
0.0089294463 0.42209792 1.6408392
0.025483977 0.41747296 1.6386031
0.037756074 0.41887969 1.6380501
0.082740813 0.4209995 1.649091
0.098489866 0.42046937 1.6472383
0.11814778 0.42178667 1.6442499
0.13479881 0.4215208 1.6441891
0.15322648 0.42242408 1.6453458
0.17167073 0.4192037 1.6438456
0.18820715 0.42142451 1.6422136
0.20603877 0.41958839 1.6439322
0.22463399 0.41551447 1.6442502
0.24348436 0.42225644 1.649789
0.26104176 0.41968262 1.645646
0.27974156 0.41969001 1.6410651
0.29522377 0.42177814 1.6473074
0.3180584 0.4176859 1.6477649
0.33278367 0.42299536 1.6489283
0.3460544 0.42435926 1.6476376
0.37308034 0.41863671 1.6457273
0.3874729 0.42221966 1.6503695
0.40481365 0.42272601 1.6430671
0.41939971 0.4199138 1.640932
0.44201818 0.42207718 1.6467665
0.45668387 0.41920182 1.6418371
0.47675338 0.42104152 1.6422169
0.49468797 0.42376858 1.6450535
0.50665134 0.41999063 1.6470002
0.53813249 0.41705388 1.6421876
0.5483889 0.42181045 1.6421818
0.56614 0.42133087 1.6465623
0.58533049 0.41954637 1.6438929
0.60955256 0.41823158 1.6463001
0.62229753 0.42234346 1.647372
0.63904703 0.42300013 1.6482989
0.65334487 0.42097425 1.6514548
0.67640412 0.42789519 1.6439854
0.68891823 0.42388511 1.6480515
0.71702415 0.41747332 1.6520001
0.72355735 0.42331979 1.6532501
-0.72253644 0.44458115 1.6500555
-0.71129078 0.44244683 1.6455169
-0.69204485 0.44017959 1.6434079
-0.67448312 0.4412055 1.6535426
-0.66157061 0.44194806 1.6540002
-0.63423514 0.44066247 1.6475439
-0.62027597 0.44073251 1.6459882
-0.60345507 0.44091317 1.6442887
-0.58550936 0.44080651 1.6411319
-0.57099104 0.43723238 1.6415529
-0.54734719 0.4342269 1.6422169
-0.53009158 0.43554768 1.6462142
-0.5152266 0.43831649 1.6489862
-0.49573201 0.43807587 1.6430403
-0.48428184 0.43423861 1.6422501
-0.45739785 0.44051385 1.6419501
-0.44078428 0.4404006 1.6428487
-0.41595256 0.43589905 1.6381668
-0.408539 0.4356631 1.6388656
-0.38027611 0.43465671 1.6438335
-0.36860153 0.4381128 1.6439064
-0.35323697 0.43811917 1.6450357
-0.32692957 0.43225786 1.6451668
-0.31217572 0.43717217 1.6443155
-0.29785955 0.43895987 1.6443975
-0.28011748 0.4356032 1.6432749
-0.26117557 0.44017637 1.6419196
-0.24925244 0.43671536 1.6391751
-0.22107638 0.43868637 1.6411365
-0.20725402 0.43931246 1.6453253
-0.19508195 0.43455452 1.6500001
-0.17593949 0.43308979 1.648375
-0.14831749 0.44165984 1.6430001
-0.13926695 0.4356347 1.6466669
-0.11201662 0.43386403 1.6408334
-0.10377884 0.43384203 1.6407499
-0.039013136 0.43599749 1.6406
-0.026787398 0.4370555 1.6425258
-0.0099178124 0.43548834 1.6386834
0.12227336 0.43242702 1.6423334
0.18415792 0.43337926 1.6390001
0.29127136 0.43368778 1.6401668
0.32074943 0.43719059 1.6386073
0.33260995 0.43518764 1.6440434
0.44601023 0.43344536 1.63925
0.50154322 0.43490502 1.6430417
0.50634116 0.43326002 1.6437501
0.57281417 0.44550872 1.6399168
0.5776071 0.44532788 1.6392502
0.62676561 0.43331316 1.6387501
0.63535154 0.43356106 1.6396875
0.72859204 0.43740261 1.649
-0.72938913 0.45714131 1.6474093
-0.71002257 0.45260987 1.6466252
-0.69801986 0.45152861 1.6426876
-0.67479354 0.45472848 1.6534998
-0.65740246 0.4541775 1.6510938
-0.63652986 0.46030203 1.652265
-0.62152576 0.45372093 1.6449772
-0.59739357 0.45247331 1.643625
-0.58696514 0.45222437 1.6413639
-0.45697778 0.45374081 1.6394231
-0.44137385 0.45037806 1.6410002
-0.30263513 0.45017222 1.6402501
-0.26188436 0.45085832 1.64275
0.80406064 0.465561 1.6510625
0.81252944 0.46785039 1.65425
-0.74491936 0.48065031 1.65075
-0.73649454 0.47052303 1.64425
0.76664233 0.48112175 1.6428751
0.7880162 0.48024851 1.6419108
0.80044186 0.47724158 1.6421549
0.8163991 0.47906056 1.6481001
0.83517939 0.48095039 1.6536334
-0.88426 0.50151062 1.65575
-0.83000964 0.50135916 1.6552501
-0.82083774 0.50290287 1.6535001
-0.80004007 0.50175053 1.6515683
-0.78212589 0.50098217 1.6461501
-0.76559842 0.49945998 1.6453055
-0.75161463 0.49054718 1.6455358
0.77194804 0.48712528 1.6415
0.78248036 0.48892558 1.6506876
0.80651253 0.48635921 1.6420001
0.81931961 0.49127969 1.6457859
0.83237696 0.48836014 1.651094
-0.90776157 0.51214248 1.6492144
-0.8881461 0.51189363 1.6448873
-0.87444896 0.51402813 1.6477144
-0.85250849 0.51371437 1.6499707
-0.83646828 0.51429754 1.6504163
-0.81836444 0.51161641 1.6517502
-0.80083019 0.51271468 1.6480068
-0.78339612 0.51231855 1.6404501
-0.76714736 0.50848001 1.6398251
-0.88284039 0.52425325 1.6402501
-0.87548208 0.5248723 1.6421912
-0.83628899 0.52362585 1.6512501
-0.7940858 0.52361399 1.6382501
-0.79039788 0.52389365 1.6391251
0.37023988 0.37302783 1.6721357
0.38277644 0.3748531 1.6698751
0.5122785 0.37504002 1.6654999
0.52760887 0.37776333 1.6719375
0.58448875 0.37379324 1.6710751
0.60836279 0.37395996 1.6710179
0.61847532 0.37345088 1.6690781
0.66229844 0.37185624 1.6625911
0.67252469 0.3712388 1.6666073
0.69343036 0.37532353 1.6706032
-0.45134431 0.39336514 1.672875
-0.44466013 0.39388508 1.6725358
-0.40193835 0.39235124 1.6677142
-0.39344543 0.39254525 1.6682001
-0.18497784 0.39212379 1.6661407
-0.1755465 0.39246261 1.6675626
-0.077840745 0.39387459 1.6730556
-0.068039343 0.39336556 1.6728752
-0.045645744 0.3880915 1.6724999
-0.03447542 0.39348334 1.6733751
-0.0036609066 0.39456299 1.6602501
0.0088855205 0.39458615 1.6670713
0.020061469 0.39414558 1.6702501
0.065283746 0.3915225 1.6684643
0.081164986 0.39170125 1.6628439
0.10407233 0.39353243 1.6735834
0.11106487 0.39351285 1.6735001
0.15660021 0.38902435 1.672895
0.16937405 0.39033797 1.6716603
0.19183423 0.38971952 1.6668917
0.20441122 0.38728073 1.6640334
0.22623323 0.39435744 1.6731251
0.23877478 0.39380229 1.67275
0.26114005 0.39285499 1.664088
0.27906936 0.38866356 1.6687821
0.29549262 0.38860819 1.6676712
0.31758925 0.3911407 1.6693661
0.33319351 0.39002493 1.6645917
0.35045987 0.39053848 1.6694444
0.36954483 0.38768503 1.6716273
0.38677397 0.38793027 1.6701794
0.40617356 0.39174008 1.6662501
0.42298681 0.3915599 1.6645002
0.44075692 0.38970286 1.6692002
0.45904291 0.39196005 1.6685342
0.47215652 0.39178076 1.6677728
0.50081265 0.39133811 1.6685178
0.50717825 0.38958159 1.6670455
0.53364629 0.3845408 1.6723613
0.54709256 0.39132282 1.6664063
0.56835312 0.38045037 1.6622916
0.58505905 0.38637975 1.6677358
0.60672522 0.38770613 1.6686847
0.61928076 0.38618374 1.667069
0.63985115 0.38755217 1.6594319
0.65936142 0.38467711 1.6587054
0.67507809 0.38668129 1.6627951
0.69282746 0.38751709 1.6652724
0.70776594 0.38932431 1.6654098
-0.69152224 0.40903944 1.6720151
-0.67455912 0.41024578 1.6713474
-0.65761846 0.41069001 1.6678503
-0.63610977 0.40722302 1.6685083
-0.62598717 0.40769929 1.6685501
-0.59907317 0.41127858 1.6703439
-0.58540851 0.4102737 1.6633271
-0.56669134 0.40560621 1.6632032
-0.54904002 0.40988353 1.667576
-0.5357213 0.41113079 1.669889
-0.51716036 0.41217566 1.6640835
-0.49060348 0.41324893 1.6684166
-0.47729084 0.41032404 1.6672058
-0.45503151 0.40572885 1.6696498
-0.44127557 0.40483302 1.6697553
-0.42556915 0.4096078 1.6678002
-0.40353 0.40517315 1.6674765
-0.38842392 0.40493748 1.6673098
-0.36662009 0.40694821 1.6708674
-0.35088328 0.41144547 1.6715578
-0.33149654 0.40793741 1.6669928
-0.31689319 0.40903035 1.6608684
-0.29573414 0.40750325 1.6685082
-0.28035015 0.40544 1.6698849
-0.26083189 0.40762886 1.668645
-0.24294876 0.41003406 1.6690922
-0.22557046 0.40700021 1.6676643
-0.20555997 0.40998122 1.6618978
-0.18838882 0.40546578 1.6604073
-0.17101994 0.40507394 1.6665833
-0.15431403 0.40559709 1.6665376
-0.1385407 0.41128808 1.66275
-0.11459069 0.41171455 1.6673411
-0.098271392 0.40749609 1.66273
-0.080387652 0.40347013 1.6679461
-0.065811835 0.40641874 1.6696126
-0.045669533 0.40486911 1.6644567
-0.02884623 0.40621415 1.6647788
-0.007663094 0.40759394 1.6624254
0.0091596972 0.4050557 1.6612029
0.025104664 0.40336168 1.6615591
0.047644347 0.40343648 1.6669048
0.057396118 0.40126917 1.6694065
0.088412046 0.40892771 1.6573572
0.099589892 0.40491846 1.6609999
0.11628776 0.40178743 1.6634705
0.13240306 0.40075734 1.6618866
0.15465827 0.39719418 1.6684064
0.17182657 0.40373293 1.6643277
0.1844233 0.400437 1.6630626
0.21175385 0.40525055 1.663988
0.22526972 0.40508088 1.6643127
0.24264796 0.4049533 1.6617392
0.26006868 0.404154 1.6603191
0.27957267 0.40141794 1.663883
0.30004546 0.40084356 1.6575278
0.31329533 0.40125388 1.66271
0.33494985 0.40329072 1.6623751
0.35087171 0.40502259 1.6640967
0.36837476 0.40390888 1.6636429
0.386655 0.40174434 1.667017
0.40388194 0.40053371 1.6643002
0.42403993 0.40436438 1.6598785
0.4412131 0.40421414 1.6633095
0.45796013 0.39929524 1.6635396
0.47586083 0.40694326 1.6621178
0.49679491 0.40480325 1.6625726
0.50533712 0.41218108 1.6585001
0.54424274 0.39723659 1.6715001
0.58853054 0.40460527 1.6587915
0.6026786 0.400931 1.6617501
0.61933845 0.40541238 1.6693077
0.63136178 0.40463153 1.6616668
0.66361231 0.3980211 1.6561501
0.67434102 0.39956456 1.6611137
0.69571078 0.40086925 1.6626914
0.71181136 0.40502146 1.6638469
0.72210014 0.40894979 1.6645501
-0.72267836 0.42648917 1.6656501
-0.71327782 0.42047372 1.6681347
-0.69220585 0.42042944 1.6704655
-0.67563254 0.42253223 1.6689936
-0.65665901 0.42332593 1.663902
-0.63832724 0.4226748 1.6634136
-0.62447578 0.42419282 1.6657641
-0.59785354 0.42180294 1.6640335
-0.58379227 0.41861096 1.6606356
-0.57157648 0.41564319 1.6604643
-0.54605669 0.42243189 1.6667223
-0.53056395 0.42054459 1.6660776
-0.51261252 0.42254591 1.6636909
-0.49404642 0.42232722 1.6629928
-0.47683594 0.42000812 1.6624466
-0.45925197 0.42038068 1.660856
-0.44409856 0.41875958 1.6609501
-0.42089802 0.41729495 1.663893
-0.40804955 0.41883212 1.66313
-0.38154045 0.42168677 1.6636539
-0.3714757 0.4221887 1.6621172
-0.34888348 0.42286468 1.6652558
-0.33271492 0.42361432 1.6589434
-0.32383671 0.42995316 1.6575
-0.29377937 0.4179211 1.6599686
-0.28531021 0.41788843 1.6591562
-0.25733617 0.41742823 1.6658639
-0.24364232 0.41680834 1.6646346
-0.22536367 0.41896358 1.6632003
-0.20297232 0.41801482 1.6574501
-0.18854629 0.42222571 1.657836
-0.17256267 0.42072251 1.6598788
-0.15959041 0.41662541 1.66185
-0.12956233 0.41801858 1.6699644
-0.11602864 0.42129683 1.6653649
-0.10428 0.4233751 1.6611966
-0.059645683 0.41435325 1.6728752
-0.042117264 0.42082539 1.6587844
-0.027627312 0.42218345 1.6608299
-0.0097618755 0.41854316 1.6584374
0.0065665594 0.41862994 1.6572654
0.086682685 0.41982439 1.6573182
0.096421607 0.41723254 1.658893
0.21299088 0.4169302 1.6571668
0.22150579 0.41664171 1.6569376
0.24286926 0.41575548 1.6561667
0.25394303 0.41574502 1.6561251
0.34014153 0.41753948 1.6577501
0.3482835 0.41649351 1.6591113
0.48334822 0.41952664 1.6601502
0.49495402 0.41680491 1.6638124
0.50465155 0.4157764 1.6562501
0.57284933 0.41878927 1.6572084
0.58356243 0.41865176 1.6573089
0.62557298 0.41651788 1.6647501
0.72709185 0.4219451 1.662389
-0.72839665 0.43840322 1.6650209
-0.66892445 0.43652806 1.6636002
-0.65646398 0.44199252 1.6603667
-0.64382863 0.44154572 1.6593891
-0.54750502 0.43254718 1.6675001
-0.51359993 0.43528572 1.6593333
-0.38161761 0.43371296 1.6586251
-0.36639574 0.43664372 1.6585003
-0.35229322 0.43433475 1.65835
-0.33366594 0.43288898 1.658125
-0.32383671 0.43272579 1.6575
-0.030015657 0.43354711 1.658875
0.73654211 0.44230136 1.6622813
0.74000663 0.44508803 1.66225
-0.7412678 0.46126878 1.6705
-0.73729759 0.45302135 1.6710001
-0.66697764 0.45449486 1.6560001
-0.66314018 0.4539682 1.6561
-0.63891041 0.45425799 1.6566924
0.73617268 0.45331505 1.6567501
0.76923114 0.46024203 1.6610354
0.78016245 0.46291479 1.661917
0.80262423 0.46574509 1.6681875
0.81899583 0.46480554 1.6624038
0.82884455 0.46726209 1.6620001
-0.75002646 0.47773844 1.6641113
0.76794344 0.47578797 1.6611539
0.78338861 0.47721526 1.6610069
0.79655182 0.47492057 1.6634674
0.82379597 0.47412562 1.6582325
0.8331036 0.47471249 1.6576875
0.8483206 0.47175395 1.6730001
-0.90916145 0.50220764 1.6709751
-0.88959587 0.49973798 1.6660249
-0.87555742 0.49939868 1.6695313
-0.83609384 0.50168735 1.6563334
-0.81212252 0.5022974 1.6706667
-0.80693346 0.50126266 1.6734167
-0.78212535 0.49855915 1.6679063
-0.76795697 0.49518549 1.66475
-0.75594801 0.49072814 1.6567501
0.78905749 0.48810408 1.65725
0.79273641 0.48780957 1.6562501
-0.92234653 0.5103516 1.6707046
-0.90868121 0.50835347 1.6635557
-0.89134616 0.50570929 1.6593126
-0.87238246 0.51118714 1.6682214
-0.85693753 0.5091657 1.6681501
-0.83715039 0.5055638 1.6584584
-0.82161212 0.50556183 1.6691251
-0.80137563 0.50408757 1.6735001
0.66236931 0.33684504 1.6911668
0.66851914 0.33744374 1.6906251
-0.38248682 0.35702813 1.6917497
-0.37579909 0.35818577 1.69175
0.40821984 0.35687578 1.6855626
0.42053556 0.3525916 1.6864272
0.44437855 0.35598379 1.684
0.45310417 0.35509288 1.682125
0.51673597 0.35436726 1.6803815
0.52752119 0.35304973 1.6810831
0.54069322 0.35944131 1.6910001
0.65990472 0.35226321 1.6830429
0.66979945 0.3489193 1.6868383
-0.38145792 0.36384556 1.6917499
-0.36253023 0.37602356 1.6892501
-0.35693252 0.37607923 1.6895001
-0.33123884 0.37182826 1.6881833
-0.32189733 0.37075624 1.691
-0.27787173 0.37332952 1.6898475
-0.26567611 0.37430564 1.6906072
-0.20461179 0.37539014 1.6900357
-0.18964645 0.37514561 1.691173
-0.16860773 0.37394285 1.6896733
-0.15925421 0.37352827 1.6907501
-0.13248822 0.37525791 1.6874063
-0.11708162 0.37411627 1.6800627
-0.10652982 0.37631422 1.6842501
-0.075079694 0.37540039 1.6896251
-0.063064463 0.37467471 1.6895415
-0.04367299 0.37589169 1.6823502
-0.025521332 0.37427765 1.68335
-0.0093767401 0.37234247 1.6896566
0.0025299857 0.37349018 1.6887501
0.051207665 0.37767187 1.6840001
0.063293599 0.37362993 1.6869688
0.079038344 0.37396005 1.6907308
0.11941706 0.37437955 1.6860973
0.1346169 0.37341812 1.68313
0.19077912 0.37191883 1.6877313
0.20469412 0.37235606 1.686034
0.22132814 0.37420231 1.6865
0.24435812 0.37040806 1.6868418
0.25824583 0.37040457 1.6872501
0.3189353 0.37233487 1.6778824
0.33189613 0.37206447 1.6791523
0.3534407 0.3729988 1.6822898
0.369831 0.36845869 1.6874167
0.38796976 0.36979932 1.685277
0.40498576 0.36963409 1.6855836
0.42275739 0.37007183 1.6852106
0.44140276 0.36934853 1.6852323
0.45744058 0.37031737 1.6847086
0.47355253 0.37679693 1.6848127
0.51301467 0.37020493 1.6810325
0.53086901 0.37024707 1.6813787
0.54875672 0.37043029 1.6876546
0.56790888 0.37179205 1.6888078
0.58219647 0.36713457 1.6836787
0.59478414 0.36640418 1.6840001
0.6222868 0.37120506 1.6830834
0.63641655 0.37478542 1.6805625
0.66050231 0.36883223 1.6817309
0.67472976 0.36534148 1.6803184
0.69261676 0.37205139 1.6784167
0.70751745 0.37621412 1.6775001
-0.68879241 0.39399567 1.6863501
-0.6758135 0.39346933 1.6836593
-0.65742636 0.3947491 1.6847501
-0.63703686 0.39054593 1.6848646
-0.62200779 0.39174691 1.6888202
-0.60570294 0.3935383 1.6894547
-0.57934916 0.39413044 1.6871668
-0.56669104 0.39200827 1.6899598
-0.54907233 0.39020294 1.6894834
-0.53706032 0.3914381 1.6892728
-0.45591655 0.39154714 1.6883394
-0.44411597 0.39286336 1.6861111
-0.42097276 0.39496881 1.6856875
-0.41200829 0.39448553 1.6836251
-0.36698857 0.38818398 1.681864
-0.35072994 0.38705721 1.6852566
-0.33237395 0.38790846 1.6820111
-0.32183281 0.39102367 1.6843216
-0.29535139 0.38946807 1.6853752
-0.27870899 0.38672775 1.682457
-0.26146778 0.38768315 1.6891834
-0.24330959 0.3864266 1.6853456
-0.22467385 0.3874144 1.6845006
-0.2068598 0.3867999 1.6869704
-0.18951678 0.3856197 1.6889063
-0.17116432 0.38613969 1.688314
-0.15293553 0.38885668 1.6848068
-0.13555036 0.38641489 1.6816441
-0.11774392 0.3868371 1.6781394
-0.10040038 0.38909286 1.6866695
-0.080515347 0.38571906 1.6805307
-0.062628686 0.38604102 1.6842804
-0.046660796 0.37999642 1.6804445
-0.026892981 0.38643867 1.6758721
-0.009174224 0.38694921 1.6806171
0.0082523348 0.38652432 1.6805664
0.026539372 0.38786152 1.6824141
0.0467459 0.38883024 1.6828431
0.063205674 0.38520962 1.6816291
0.080568776 0.38600281 1.6853937
0.097968154 0.38662067 1.6782502
0.11754091 0.38710505 1.6804616
0.13518052 0.38744938 1.6775715
0.14900607 0.38645217 1.6752639
0.17445724 0.3851755 1.6799091
0.18670973 0.38301182 1.6823126
0.21032099 0.38195866 1.6796718
0.22401352 0.38577655 1.6779222
0.2437588 0.38551119 1.6824888
0.25952217 0.38661852 1.6839298
0.283461 0.3827036 1.6875626
0.2990168 0.38138372 1.6838572
0.31388238 0.38239479 1.6765702
0.33286062 0.38169539 1.6769305
0.35066923 0.38124251 1.6749403
0.36167398 0.37822932 1.674
0.39200565 0.38053656 1.6780001
0.4046576 0.38502884 1.6801124
0.42309585 0.3829098 1.6787715
0.44028664 0.38078719 1.674827
0.46055144 0.38512704 1.6833056
0.47805527 0.38578874 1.6825669
0.49543315 0.38756141 1.6849999
0.50464702 0.38152978 1.6793125
0.53813761 0.37828583 1.6742501
0.55032432 0.38518754 1.681129
0.56474787 0.38065872 1.6812263
0.606758 0.39034751 1.6833613
0.62802362 0.3952665 1.6750001
0.63876611 0.38653749 1.675625
0.65667349 0.37979981 1.6782222
0.71392018 0.38338223 1.6843127
0.72278881 0.38896841 1.69025
-0.71012092 0.40653592 1.6812671
-0.6937241 0.40260255 1.6822604
-0.67519778 0.40209895 1.6820406
-0.65623897 0.40511113 1.6813124
-0.63881266 0.39883345 1.6811876
-0.6214534 0.40403491 1.6857564
-0.60324931 0.40357038 1.6806504
-0.58658421 0.40274346 1.678606
-0.56617266 0.40042171 1.683841
-0.54969019 0.40320298 1.683592
-0.53110802 0.40510491 1.68283
-0.51321638 0.40900004 1.6862168
-0.49640757 0.4108811 1.6862001
-0.47527796 0.40434781 1.6814533
-0.46343726 0.40429348 1.681663
-0.43335223 0.39739144 1.6900001
-0.42311633 0.40291005 1.6815501
-0.4122456 0.40226778 1.6769584
-0.38208976 0.40656632 1.6897309
-0.36571416 0.40141988 1.6811876
-0.35199788 0.40410042 1.6846964
-0.33544561 0.39994502 1.6747967
-0.31633288 0.40346622 1.6778637
-0.30055362 0.40178511 1.6806973
-0.27463049 0.39868793 1.6752503
-0.2608653 0.40110454 1.6852067
-0.2432009 0.4024387 1.6815689
-0.22254238 0.40080547 1.6831311
-0.20747381 0.40293688 1.6828448
-0.19636822 0.39964628 1.6816667
-0.16502385 0.39763445 1.6816429
-0.15134664 0.3989585 1.6794848
-0.13572818 0.40476686 1.6795375
-0.11727969 0.40394551 1.6778477
-0.10074777 0.40068862 1.6795907
-0.089083098 0.39923078 1.674
-0.059600923 0.40324306 1.6767825
-0.02370796 0.40095958 1.6753751
-0.012701903 0.40200242 1.6755539
0.030818148 0.39891678 1.6811945
0.042420629 0.4009456 1.6817877
0.12377055 0.39806837 1.6750001
0.13545497 0.39900035 1.6746365
0.22308719 0.39783069 1.674
0.24835917 0.39794958 1.6745001
0.25263521 0.39806837 1.6750001
0.48212814 0.40302187 1.6781251
0.49061409 0.40426996 1.6787776
0.62695497 0.40545228 1.674639
0.63273048 0.40465036 1.6754811
0.72840643 0.40434727 1.6836251
-0.72754502 0.42281622 1.68205
-0.71395004 0.41745675 1.6803613
-0.61966622 0.42300761 1.6824168
-0.60899734 0.4250544 1.682
-0.52717656 0.41568458 1.6782501
-0.50766128 0.41727442 1.6859444
-0.50138342 0.41796973 1.6875
-0.46245742 0.41716713 1.6797001
-0.13252896 0.4147867 1.674625
0.63091916 0.41494149 1.6752501
0.73540425 0.42150956 1.6819376
0.73848897 0.42538339 1.6777501
-0.74021721 0.44527805 1.6840001
-0.73511839 0.43349487 1.682
-0.6092515 0.43201295 1.6762501
0.74350852 0.43953094 1.6764169
-0.74679595 0.46048594 1.6829585
0.75374651 0.46630141 1.6836251
0.76784438 0.46214503 1.6842999
0.78364652 0.45710248 1.68325
0.80111575 0.46210074 1.6818519
0.81697839 0.46041617 1.6775833
0.83742064 0.46187857 1.6866478
0.85248214 0.46370542 1.6895627
-0.84976053 0.48349246 1.6856501
-0.83533871 0.47778171 1.6842731
-0.82008964 0.48004046 1.6851531
-0.80196506 0.48458543 1.6835501
-0.78094202 0.48334873 1.6884332
-0.76430333 0.48142999 1.6852322
-0.75114828 0.47042075 1.6832501
0.7552101 0.47056049 1.68375
0.76613474 0.47357145 1.6784018
0.77665263 0.4794178 1.6753334
0.84033108 0.47078499 1.6807117
0.85009176 0.47041851 1.684275
-0.92606604 0.49953255 1.6865126
-0.90851909 0.4976173 1.6811442
-0.89260226 0.496301 1.6779375
-0.86982739 0.49425247 1.679371
-0.85524338 0.49490458 1.6803515
-0.83711499 0.49498969 1.6806327
-0.81952626 0.49426705 1.6813654
-0.80042744 0.4943687 1.6803257
-0.78296113 0.4906823 1.6817002
-0.76878154 0.49033809 1.6794559
-0.92349577 0.50428838 1.6741667
-0.8647384 0.50431347 1.6742501
-0.85514659 0.5064919 1.6764091
-0.83660173 0.50592715 1.6796072
-0.82464743 0.5063467 1.6810001
-0.79607534 0.5042758 1.6741251
0.18772221 0.34037256 1.7088751
0.24805851 0.3416996 1.7012501
0.255247 0.34180003 1.70175
0.38580579 0.33790752 1.7030002
0.48061433 0.34023085 1.7000358
0.48935542 0.34044728 1.7092501
0.53453755 0.33857048 1.6959548
0.54288411 0.33788061 1.696375
0.60736787 0.34009868 1.7075001
0.61379755 0.34049705 1.7095001
0.65820915 0.3372142 1.6971073
0.6739164 0.33553758 1.7024688
0.69536984 0.3397857 1.7011667
-0.60358131 0.35787651 1.70375
-0.58473366 0.35569075 1.6986841
-0.51025802 0.35980767 1.7061501
-0.49114951 0.35862023 1.7063216
-0.47816125 0.3591724 1.7050714
-0.4658522 0.35967058 1.7055001
-0.4026061 0.35745662 1.7058251
-0.38839307 0.353962 1.7048
-0.37583572 0.35951239 1.7047501
-0.32782841 0.3597424 1.6924168
-0.3221353 0.359707 1.6922501
-0.18478419 0.35660705 1.7045001
-0.17775626 0.35681096 1.70275
-0.15165339 0.35722888 1.7006668
-0.13612548 0.35752994 1.7021
-0.1164121 0.3589043 1.7052501
-0.10579263 0.35915452 1.7064376
-0.025169043 0.35414749 1.70639
-0.012923047 0.35581329 1.7046071
0.051869046 0.3597233 1.7057501
0.05613184 0.35961783 1.70525
0.10060502 0.35739288 1.7063037
0.11148817 0.35642719 1.7075359
0.13833645 0.35503083 1.7085191
0.15103634 0.35617995 1.7056911
0.17501986 0.35158819 1.7086873
0.1885643 0.35122398 1.7052082
0.20703016 0.35708055 1.7048213
0.22003302 0.35661176 1.7045313
0.24578156 0.35230118 1.7023753
0.26163405 0.35131019 1.704394
0.27836177 0.35438615 1.7066035
0.29591548 0.3523961 1.7033054
0.31718275 0.35462767 1.7028215
0.33192247 0.35319728 1.7018207
0.35056585 0.3556833 1.6943817
0.36468056 0.35873914 1.7010835
0.38786361 0.35024622 1.703657
0.40247455 0.35434264 1.70403
0.42306852 0.34694105 1.6990499
0.43944031 0.35255942 1.7001084
0.46079609 0.34971637 1.7056829
0.47598249 0.35039786 1.69888
0.48999199 0.35029188 1.7015358
0.51310796 0.35441545 1.6940193
0.53344584 0.34727606 1.6949854
0.54824805 0.35314444 1.6978748
0.56751549 0.35617054 1.6956406
0.58611786 0.35737175 1.6996877
0.60332066 0.35108259 1.7033249
0.61385226 0.35165268 1.7046876
0.65487361 0.35294551 1.6996335
0.68185461 0.35038552 1.7019821
0.69284725 0.35127178 1.7006825
0.7062977 0.35119843 1.7023159
-0.6694324 0.37670001 1.7094167
-0.65872931 0.375285 1.7086538
-0.63764995 0.37551519 1.6987692
-0.61967939 0.37232608 1.7040349
-0.60311764 0.36939189 1.7032257
-0.58430749 0.36838779 1.6987613
-0.56726539 0.37131795 1.6981617
-0.5490123 0.37321454 1.6982331
-0.53471756 0.37422806 1.7036375
-0.51112932 0.36982504 1.6989535
-0.49563745 0.36922458 1.70145
-0.47709692 0.36952791 1.7049103
-0.46449348 0.36999512 1.7051324
-0.4329356 0.37393335 1.70225
-0.42220554 0.37320736 1.7035528
-0.40504524 0.3693518 1.7059819
-0.38825765 0.36863691 1.7053462
-0.36485466 0.37132016 1.7000715
-0.35183012 0.37379476 1.701264
-0.33183759 0.36488906 1.6926501
-0.32005182 0.36898586 1.7012709
-0.29204535 0.37446591 1.6950001
-0.27893746 0.37098107 1.7050358
-0.26194945 0.37513649 1.7058003
-0.24313112 0.37565297 1.6939501
-0.21882908 0.3762908 1.7032501
-0.20577779 0.37348646 1.7060751
-0.18818504 0.36717862 1.6998515
-0.17214966 0.36664453 1.6981727
-0.15223357 0.36780182 1.6996976
-0.13450417 0.36704054 1.6953825
-0.11752222 0.36719495 1.7007415
-0.10231734 0.37092569 1.704298
-0.084664643 0.37646472 1.6976252
-0.060133874 0.36956081 1.6973408
-0.045019552 0.37140167 1.6977817
-0.027331855 0.36703032 1.7000003
-0.0097752316 0.36353302 1.6955135
0.0094008567 0.36970484 1.7072155
0.027624764 0.37262926 1.7060627
0.045707308 0.37060204 1.7033381
0.060460534 0.36713886 1.6999702
0.085060738 0.36954129 1.6992813
0.098561138 0.36968723 1.6991427
0.115436 0.36741552 1.703184
0.1348002 0.36512962 1.7051618
0.15231985 0.36912754 1.6965357
0.17082226 0.36911827 1.6993484
0.18713909 0.36498556 1.7005241
0.20775712 0.36518395 1.6974478
0.22427483 0.36802649 1.6978285
0.24155228 0.36576557 1.702167
0.26356357 0.36687946 1.7012752
0.27934435 0.36972263 1.7001042
0.29722759 0.36937591 1.6976845
0.31410372 0.36915991 1.6993719
0.33391735 0.36491308 1.6980499
0.34912509 0.36626697 1.6926693
0.3685618 0.36319813 1.6971167
0.38684532 0.36362728 1.7011429
0.39942619 0.36355865 1.7036667
0.42954722 0.36394489 1.6988335
0.43534929 0.36398959 1.7006876
0.46641698 0.36616486 1.6986001
0.4783313 0.36950508 1.7013333
0.49577209 0.37129909 1.6974469
0.50795096 0.36709848 1.6933239
0.55101883 0.3623561 1.6940501
0.56645125 0.36319777 1.6932502
0.58854389 0.36032143 1.6985
0.60553229 0.36821136 1.698844
0.619937 0.36760104 1.7002798
0.64018512 0.37090892 1.7029433
0.65441126 0.37015134 1.7023109
0.68181765 0.36154032 1.700875
0.69253564 0.36631915 1.6986113
0.71068823 0.36874276 1.6994559
0.72165072 0.37297112 1.7076252
-0.72235096 0.39443314 1.7016251
-0.7104854 0.39089844 1.7021786
-0.69576311 0.39392507 1.7009689
-0.67163116 0.38936287 1.7055
-0.6579957 0.38710409 1.7042344
-0.64149618 0.38317144 1.6965394
-0.62000865 0.38301402 1.6961161
-0.60204321 0.38612166 1.6991088
-0.58643466 0.3862175 1.7012901
-0.56758267 0.38277495 1.6941252
-0.54878706 0.38109782 1.6929644
-0.5294795 0.38593051 1.6965394
-0.51297623 0.38765436 1.6976342
-0.49409053 0.38694763 1.6982011
-0.47816038 0.38744998 1.7013378
-0.46203211 0.3848646 1.695963
-0.4384751 0.38945544 1.6991549
-0.42357579 0.38647938 1.6996032
-0.40436596 0.3864215 1.6960613
-0.38682336 0.38819331 1.6956034
-0.37404644 0.38086593 1.6982501
-0.34871829 0.37931418 1.6976668
-0.32589257 0.38512018 1.7045002
-0.31541932 0.38895297 1.7000924
-0.30020908 0.38407072 1.6962858
-0.25677469 0.38049409 1.7093334
-0.23460513 0.37985849 1.69375
-0.22356217 0.38010576 1.7021072
-0.21598041 0.37913993 1.7032501
-0.16493294 0.39179212 1.6939001
-0.15309599 0.38526165 1.7009629
-0.095677182 0.38300157 1.6987383
-0.087340005 0.38002291 1.6945001
0.013940184 0.38019314 1.7025002
0.028979627 0.38168135 1.7018908
0.04177196 0.38260022 1.6975501
0.098246492 0.37984911 1.6937084
0.1082233 0.38008276 1.6947501
0.15416306 0.3812362 1.6942778
0.17040266 0.38272941 1.6946619
0.23131642 0.37974635 1.6932501
0.26795661 0.38475576 1.693139
0.27762589 0.38398379 1.6957794
0.49442986 0.37955013 1.6923752
0.50422508 0.379466 1.692
0.60573822 0.38721073 1.6949534
0.6463632 0.37962019 1.7011667
0.65270382 0.37963772 1.6991251
0.71787781 0.38088113 1.692
0.7296257 0.38521293 1.7067144
-0.72496295 0.40566501 1.7003334
-0.71185917 0.39982727 1.7003545
-0.70175856 0.39974415 1.7
-0.66786051 0.39816514 1.7023752
-0.66238534 0.39939398 1.7011071
-0.59598637 0.39699075 1.7065001
-0.59174848 0.3970198 1.706625
-0.52522606 0.40085459 1.6952503
-0.51344669 0.40015379 1.6951429
-0.49536929 0.40312654 1.6951717
-0.47789165 0.39732149 1.694
-0.43895361 0.39720938 1.6952502
-0.39601427 0.3967993 1.6935
-0.38747731 0.3981742 1.693325
-0.31269458 0.40089843 1.6925148
0.73515016 0.40089515 1.7069167
0.74005246 0.40573269 1.7072501
-0.73861176 0.42669642 1.6997501
-0.73133111 0.41841868 1.6993438
0.74749738 0.42392361 1.7057918
-0.74313527 0.43834338 1.6970835
0.75275469 0.43952903 1.696625
0.76231909 0.44433469 1.6971393
0.85544187 0.44775748 1.7096001
0.86552542 0.44779676 1.7097501
-0.83136952 0.46670803 1.7005001
-0.82044578 0.46635452 1.7044168
-0.80157447 0.46615231 1.7036668
-0.76030123 0.46249062 1.7085626
-0.75084305 0.45648843 1.696875
0.76324719 0.4576312 1.6953416
0.78452826 0.45505497 1.6994791
0.80072719 0.45717677 1.6957626
0.81855464 0.45962963 1.6953751
0.83922827 0.45755604 1.7045701
0.85545945 0.45541435 1.70553
0.86627072 0.45744371 1.7084001
-0.94056833 0.48198938 1.707
-0.92492205 0.47753561 1.7029467
-0.90891206 0.47749338 1.7038432
-0.89258939 0.4792825 1.7051295
-0.87502658 0.48313275 1.6996787
-0.85450846 0.48064613 1.701077
-0.83260769 0.47087106 1.7001249
-0.81813335 0.474749 1.7011091
-0.80120468 0.47804832 1.7008696
-0.78530163 0.47760367 1.700825
-0.76722741 0.4760263 1.7033334
-0.93887687 0.49128395 1.6991946
-0.92718029 0.49116811 1.6926501
-0.90868431 0.49058923 1.696782
-0.89247143 0.49183133 1.6988662
-0.87111872 0.48754391 1.6982223
-0.86199951 0.48748541 1.6936251
-0.7977646 0.48733267 1.6955626
0.11603133 0.32368258 1.7265835
0.41146168 0.32180303 1.7242501
0.41608879 0.32203633 1.7255001
0.46323726 0.32215014 1.7184318
0.47017145 0.32054159 1.7175001
-0.24153598 0.33812028 1.7244647
-0.23090963 0.33896011 1.726643
0.0077465288 0.34114322 1.7272501
0.10461555 0.33666146 1.7244774
0.11725033 0.33417735 1.7251968
0.13009492 0.33798185 1.7258611
0.19040467 0.33872506 1.7250781
0.20465767 0.33968222 1.7271667
0.24954741 0.33996809 1.7213334
0.26139674 0.33609283 1.7180831
0.27812454 0.33923903 1.7200418
0.2963644 0.33809379 1.7212648
0.31362492 0.34014568 1.7242858
0.33096609 0.33870327 1.7213889
0.35494739 0.33983418 1.7268927
0.36893412 0.33981445 1.7258408
0.38662207 0.33498606 1.7239776
0.4054746 0.33380401 1.7158022
0.42301443 0.33455506 1.7194377
0.44063482 0.33360747 1.7158626
0.46008125 0.33332393 1.7129873
0.47217745 0.33511198 1.7160833
0.49972978 0.33849087 1.7187222
0.51042795 0.33578935 1.7233634
0.53869402 0.33985943 1.7207501
0.54927403 0.33441031 1.7137398
0.56750166 0.33577245 1.7151295
0.5814271 0.33383805 1.7194632
0.60715473 0.3372305 1.7209039
0.62114042 0.33399728 1.7239224
0.63659835 0.33824494 1.7258637
0.6594196 0.3386026 1.7144001
0.67546386 0.33485016 1.7246001
0.69114459 0.33927056 1.7189233
0.70770127 0.3389146 1.7214689
-0.7045449 0.35858262 1.7277501
-0.69623858 0.35715416 1.7270554
-0.63230413 0.35858262 1.7277501
-0.62143105 0.35814157 1.725625
-0.60322952 0.35619205 1.7190002
-0.58443463 0.35439143 1.714469
-0.56375784 0.35578707 1.724025
-0.54857832 0.35359484 1.7205836
-0.53257704 0.35392499 1.7225119
-0.51818728 0.35926044 1.7206252
-0.49304906 0.35548705 1.719775
-0.48273838 0.35696104 1.7199445
-0.45148215 0.35602865 1.7177501
-0.44249043 0.35534677 1.7175421
-0.41690648 0.35703421 1.7272501
-0.40698975 0.35503796 1.7224425
-0.38579944 0.3534745 1.7205001
-0.37511399 0.3587006 1.7145001
-0.34967977 0.35583997 1.7136719
-0.33420548 0.3555018 1.7168928
-0.32328054 0.35760179 1.7184167
-0.29215494 0.35130835 1.7275127
-0.280707 0.35502833 1.7263999
-0.25735056 0.35555467 1.7216804
-0.24415253 0.35088968 1.7248185
-0.23079388 0.35043079 1.7240555
-0.18891104 0.35348591 1.722381
-0.17216153 0.35856482 1.7207502
-0.15319644 0.35655043 1.7179585
-0.13415515 0.35783833 1.7224376
-0.11545963 0.35422486 1.7200004
-0.099162854 0.35498041 1.72
-0.080860317 0.35370889 1.7199517
-0.062810726 0.35311884 1.7214266
-0.044733174 0.35427797 1.720457
-0.028912835 0.35158348 1.7183437
-0.0068717045 0.35244888 1.7200358
0.0090955533 0.35158563 1.7221279
0.028509272 0.35260049 1.7230859
0.043454051 0.35337716 1.7194569
0.063374244 0.35312149 1.7162415
0.076725505 0.35564297 1.719125
0.09929435 0.35072938 1.7231745
0.11763266 0.34975672 1.7231063
0.13324632 0.35023677 1.723879
0.15486506 0.35154262 1.718286
0.16846418 0.35014668 1.712579
0.2074521 0.34792122 1.7141058
0.22448911 0.35291857 1.7205003
0.24015599 0.3512243 1.7176667
0.28071582 0.3454535 1.7132107
0.29806352 0.34429732 1.7180908
0.31424296 0.34876671 1.7193872
0.33369458 0.34550688 1.7183002
0.35121763 0.34909829 1.7191939
0.36902067 0.35057613 1.7239377
0.38146561 0.35289827 1.72325
0.40812254 0.34788722 1.7122641
0.42013803 0.34687918 1.711768
0.44367102 0.34570947 1.7110358
0.45371979 0.34588683 1.7107
0.49833632 0.350741 1.7106391
0.51107633 0.34954038 1.7133819
0.52853715 0.34644279 1.7238394
0.55439097 0.34661245 1.7114586
0.56642264 0.34917331 1.7119824
0.58427685 0.35020229 1.7137502
0.59818733 0.34761539 1.7174464
0.62670672 0.35087204 1.7253612
0.63895202 0.35158229 1.7253127
0.65509826 0.3515279 1.7196335
0.693295 0.34377342 1.71875
0.71491337 0.34486994 1.7206252
-0.72229034 0.37356466 1.7235626
-0.70999837 0.37123388 1.7223032
-0.69311827 0.36876932 1.7203354
-0.67480046 0.36873606 1.7125806
-0.65730298 0.36990449 1.7160417
-0.63884598 0.36929905 1.7227073
-0.62473482 0.36541614 1.7211252
-0.57828611 0.36130494 1.71325
-0.56750882 0.36433178 1.7201126
-0.54733062 0.36517331 1.7128795
-0.53034878 0.36744449 1.7189456
-0.50867891 0.36089736 1.7250001
-0.47346005 0.36043975 1.7228125
-0.45759085 0.36970541 1.7206798
-0.44048929 0.36836734 1.7175074
-0.4256812 0.36665574 1.7255797
-0.39712885 0.37789252 1.7105001
-0.3864786 0.37540647 1.7122145
-0.37017766 0.36681312 1.7145346
-0.35024449 0.36630973 1.7128336
-0.3358236 0.36342335 1.7121819
-0.31402454 0.36873528 1.7135304
-0.29724455 0.36835778 1.7172254
-0.27841973 0.36516395 1.7175089
-0.26028159 0.36709467 1.7146287
-0.24285054 0.36900324 1.7178782
-0.2251811 0.36973238 1.7161062
-0.20899011 0.36927828 1.715
-0.19670987 0.36388701 1.7153127
-0.16908121 0.36246485 1.71875
-0.12844048 0.36135766 1.7135
-0.12328178 0.36016512 1.7215
-0.095112517 0.36814144 1.7171001
-0.08097785 0.36898142 1.7120639
-0.065380469 0.36645806 1.71324
-0.045483526 0.36594519 1.7111298
-0.033800006 0.36061954 1.71
-0.0023430309 0.36098862 1.71175
0.0093807317 0.36220375 1.7162956
0.027748112 0.36421058 1.7134447
0.04062248 0.36334732 1.7127501
0.065944888 0.36225095 1.7132086
