# .PCD v0.7 - Point Cloud Data file format
VERSION 0.7
FIELDS x y z
SIZE 4 4 4
TYPE F F F
COUNT 1 1 1
WIDTH 1465
HEIGHT 1
VIEWPOINT 0 0 0 1 0 0 0
POINTS 1465
DATA ascii
-1.4899348 -0.49547377 2.400667
-1.4618694 -0.50394344 2.4035001
-1.4478451 -0.50364208 2.4020627
-1.4352555 -0.5038386 2.4030001
-1.2116334 -0.48914304 2.4082501
-1.5321976 -0.47138113 2.3982501
-1.520609 -0.47685564 2.4018183
-1.5037302 -0.47758973 2.4031112
-1.4905578 -0.47758448 2.4030836
-1.2116753 -0.48389432 2.4083335
-0.72756833 -0.47352338 2.4002502
-1.5568838 -0.45071191 2.3998752
-1.5357568 -0.45694366 2.4020002
-1.5260532 -0.46615767 2.4051251
-1.5018888 -0.46732801 2.4043751
-1.4939137 -0.46730372 2.4042501
-0.72745562 -0.46055937 2.4056666
-0.71898299 -0.46138656 2.4008334
-1.5565846 -0.44087619 2.4034808
-1.5452414 -0.44515479 2.4076669
-1.5538807 -0.42457914 2.4054167
-1.5456228 -0.41853696 2.4110003
-1.216907 -0.42595747 2.4082501
-1.5537803 -0.40910697 2.3959002
-1.5415132 -0.40799263 2.399929
-1.5272465 -0.39942273 2.4070001
-1.5230268 -0.38916361 2.4086668
-1.4976349 -0.3782146 2.4060001
-1.4849262 -0.3783325 2.4067502
-1.4746927 -0.37841111 2.4072502
-1.226307 -0.38873568 2.4060001
-1.2210386 -0.38873571 2.4060001
-1.4998803 -0.37181899 2.3986499
-1.4870862 -0.36676311 2.4023571
-1.4723368 -0.36795413 2.4077084
-0.75921994 -0.36593568 2.4117501
-1.5006747 -0.34997448 2.3999255
-1.4879062 -0.35295054 2.4041252
-0.76503664 -0.35259518 2.4106667
-0.73809546 -0.35802603 2.4117501
-0.73185188 -0.35078457 2.4085715
-1.5008793 -0.33902663 2.3985627
-1.4872782 -0.33663008 2.4020503
-1.4720891 -0.32520318 2.4030001
-0.7423749 -0.33911309 2.4085002
-0.73243445 -0.3368282 2.4047086
-1.4639678 -0.31727281 2.4026251
-1.4561517 -0.30940902 2.40275
-1.426214 -0.30976316 2.4055002
-1.4210941 -0.30979535 2.40575
-1.4608486 -0.29459587 2.4105
-1.4279696 -0.30275056 2.4055002
-1.4175836 -0.29946038 2.4072502
-0.75245386 -0.28890538 2.4070001
-0.757882 -0.28370157 2.4075
-0.74832046 -0.20282283 2.39715
-0.73620921 -0.20012058 2.3941667
-0.74600244 -0.19318803 2.3947501
-0.74353576 -0.16704315 2.3952501
-0.74984884 -0.1532854 2.3986669
-0.74137974 -0.13586646 2.3995836
-0.7937941 -0.1151156 2.4045
-0.78358817 -0.11937038 2.4054999
-0.74060243 -0.12553869 2.40275
-0.71776015 -0.093783297 2.3967502
-0.73472905 -0.067694485 2.4007502
-0.73998606 -0.030951031 2.4007502
-0.73472905 -0.025701966 2.4007502
-1.443383 -0.9222042 2.4255002
-1.4362419 -0.92291856 2.4135001
-1.5001717 -0.90609324 2.4196565
-1.4867079 -0.90900916 2.4203751
-1.4599901 -0.90275377 2.4207501
-1.4485676 -0.91308099 2.4182
-1.5304191 -0.88542938 2.4120002
-1.5170982 -0.88759494 2.4179168
-1.5032588 -0.89267999 2.4221499
-1.4850718 -0.8938238 2.4233251
-1.4697492 -0.89660162 2.4208126
-1.5671544 -0.87006831 2.4280002
-1.556839 -0.87274086 2.4177754
-1.5385104 -0.87628859 2.417125
-1.5229837 -0.87716234 2.4228077
-1.6247412 -0.85088831 2.41875
-1.6113561 -0.85069019 2.4198613
-1.5912842 -0.85014313 2.4226499
-1.5794321 -0.86195332 2.4250834
-1.6422212 -0.83845395 2.4177501
-1.6298679 -0.83969641 2.4185002
-1.6125815 -0.84219849 2.4203751
-1.5974247 -0.84126681 2.4215002
-0.78414607 -0.66180223 2.4235001
-0.76370525 -0.61739898 2.4260001
-0.74769175 -0.62529057 2.42575
-0.73234397 -0.62604636 2.4218333
-0.76097119 -0.60407567 2.42575
-1.2621512 -0.56129861 2.4242501
-1.2568427 -0.56129861 2.4242501
-0.75885427 -0.56537229 2.4190001
-0.74530345 -0.56408095 2.4180002
-0.73440963 -0.55961996 2.4170001
-1.3698728 -0.5407095 2.427
-1.3610842 -0.54356933 2.4161251
-1.3414632 -0.54478931 2.4182143
-1.321924 -0.54605746 2.4154584
-1.3044075 -0.54684633 2.4189377
-1.2881892 -0.54859364 2.4208126
-1.2683365 -0.55485755 2.4239001
-1.2525187 -0.54960388 2.4241002
-1.2405334 -0.54522854 2.4235001
-0.75191081 -0.5491327 2.4173572
-1.3760849 -0.53048939 2.4223669
-1.3588476 -0.53364676 2.4270835
-1.2451121 -0.53432018 2.4220836
-1.2388698 -0.52333057 2.4202502
-0.75901872 -0.52500635 2.4280002
-0.74837071 -0.53131765 2.4165001
-1.4839091 -0.50607508 2.4136667
-1.4724183 -0.5049305 2.4208751
-1.4418952 -0.50803202 2.4230001
-1.4343104 -0.51176065 2.4281249
-1.4135891 -0.51700878 2.4154377
-1.3923843 -0.51920176 2.4186428
-1.3826582 -0.52094483 2.4215002
-1.2436047 -0.52001876 2.4295001
-1.2346429 -0.51569319 2.4258335
-1.219375 -0.51234996 2.418375
-0.76058215 -0.51424783 2.4273336
-0.75346923 -0.51423019 2.4272501
-1.494918 -0.4983052 2.4143751
-1.4851321 -0.49637416 2.4226873
-1.4503378 -0.5038237 2.4282501
-0.76417798 -0.50366801 2.4275
-1.5232694 -0.47068083 2.4216251
-1.4980072 -0.47665581 2.4250834
-1.491073 -0.48376951 2.4253337
-1.5381131 -0.45791364 2.424125
-1.5206677 -0.46488717 2.4259377
-1.5082941 -0.46567437 2.4231253
-1.2253709 -0.45543054 2.4250002
-1.5523071 -0.43871698 2.4264002
-1.5428563 -0.43985033 2.4268212
-1.2294843 -0.44619721 2.4252501
-1.2194319 -0.44989643 2.4237502
-1.5516973 -0.42732885 2.4259999
-1.5385011 -0.42293692 2.426146
-1.2236023 -0.42300662 2.4215002
-1.534974 -0.41070291 2.4191875
-1.5228148 -0.40402788 2.4233215
-1.5107138 -0.39673913 2.42275
-0.77441019 -0.40792194 2.4262502
-0.76732641 -0.40792194 2.4262502
-1.5194823 -0.38986027 2.4184167
-1.5042452 -0.38850752 2.4233215
-1.4835122 -0.38499013 2.4238126
-1.4758586 -0.38143712 2.4265001
-1.2450471 -0.38418943 2.427125
-1.2401701 -0.38847092 2.4262502
-1.4721677 -0.36895519 2.4241786
-0.74728173 -0.36562386 2.4121788
-1.4833809 -0.35029918 2.4208214
-1.47449 -0.34398034 2.4242501
-0.76016432 -0.3531917 2.4147501
-0.74884754 -0.35252976 2.4142504
-1.4801763 -0.33443269 2.4190834
-1.4677669 -0.33286244 2.4204583
-1.4405917 -0.32882333 2.4297502
-1.4630946 -0.317678 2.4177001
-1.4487946 -0.3150019 2.4187777
-1.4311408 -0.31642956 2.4235909
-1.4594197 -0.30330157 2.4168751
-1.4525385 -0.30421901 2.4171669
-1.4383247 -0.30067483 2.4170001
-0.76449287 -0.291486 2.4285002
-0.7580809 -0.21683668 2.4250002
-0.74722946 -0.21941984 2.4242501
-0.7738117 -0.20352939 2.4243751
-0.76277286 -0.19325669 2.4174168
-0.75227165 -0.18953156 2.414875
-0.72975725 -0.18722093 2.4191251
-0.76047909 -0.1684728 2.41575
-0.7551111 -0.17373671 2.4155002
-0.76634914 -0.14745718 2.4175832
-0.77823895 -0.13251849 2.41505
-0.76557499 -0.14010876 2.4185002
-0.7972486 -0.11070358 2.4230001
-0.78556395 -0.1124421 2.4224169
-0.75927925 -0.11628074 2.4288332
-0.74705011 -0.1157459 2.4179168
-0.79733098 -0.10541674 2.4232502
-0.78937155 -0.10011849 2.4232502
-0.75925314 -0.105656 2.42875
-0.73916662 -0.09450718 2.4152501
-0.74196458 -0.073399305 2.41575
-0.74346828 -0.062962383 2.4206252
-0.78070331 -0.0079484927 2.4292998
-0.77536768 0.00054981065 2.42925
-1.4451482 -0.92455298 2.4351878
-1.464835 -0.90617162 2.4435716
-1.4535885 -0.91269827 2.4426565
-1.515506 -0.88467556 2.4390001
-1.5077264 -0.88481158 2.4393752
-1.4869263 -0.89315456 2.4403126
-1.4686275 -0.89873624 2.441
-1.5710055 -0.86670619 2.439893
-1.5566759 -0.87196547 2.4407499
-1.5387079 -0.86954081 2.4376876
-1.5209357 -0.87406123 2.4391429
-1.5106297 -0.87961322 2.4397502
-1.5898293 -0.85091537 2.4383218
-1.5779246 -0.85681581 2.4419377
-1.6211241 -0.83347833 2.44525
-1.6097789 -0.83744299 2.4412498
-1.5992279 -0.84381646 2.4390836
-1.6115677 -0.82337499 2.447
-0.80162984 -0.63866293 2.4444499
-0.78931761 -0.64272738 2.4449999
-0.79934198 -0.62571985 2.444
-0.81381977 -0.55981112 2.4408751
-0.80609143 -0.56001174 2.44175
-0.7664603 -0.561068 2.4347501
-1.3403729 -0.54167491 2.4313335
-1.3239028 -0.54256141 2.4353125
-1.3032988 -0.54286778 2.4366877
-1.2875004 -0.54857421 2.44315
-1.2687052 -0.54733878 2.4368336
-1.2565676 -0.54226899 2.434
-0.81542391 -0.54740894 2.4399645
-0.80143178 -0.5486809 2.4418125
-1.3774939 -0.52237326 2.4405
-1.3525667 -0.52632368 2.4341252
-1.3407313 -0.5304327 2.4392657
-1.3253496 -0.53749043 2.4445417
-1.3060111 -0.53975999 2.4467502
-1.2671546 -0.53257197 2.4424167
-1.255803 -0.529006 2.4366503
-0.81069052 -0.53816056 2.4395001
-0.80280071 -0.53824329 2.4398751
-0.76324779 -0.53024453 2.4358335
-1.4648354 -0.50423861 2.4302502
-1.443923 -0.5062356 2.4398751
-1.4303024 -0.50994718 2.4394286
-1.4135524 -0.51120549 2.4381819
-1.3956852 -0.51301765 2.4372814
-1.3755577 -0.51597941 2.4418128
-1.3583089 -0.5168494 2.4396501
-1.3459867 -0.5161559 2.4447501
-1.2624186 -0.5127129 2.4453335
-1.2495358 -0.51088357 2.4397817
-0.77787936 -0.51007378 2.4455001
-0.7739315 -0.51724917 2.4415002
-1.4806229 -0.49030387 2.4314167
-1.468504 -0.49446973 2.4382498
-1.4520706 -0.50061601 2.4437001
-1.4980358 -0.47275537 2.4323125
-1.4821577 -0.48075911 2.4343572
-1.471572 -0.4843258 2.437
-0.82347864 -0.47002238 2.44575
-0.7560302 -0.4680526 2.4355001
-1.5364814 -0.45658362 2.4374444
-1.5212305 -0.45642227 2.4383929
-1.5078518 -0.46062922 2.4365003
-1.2579207 -0.45956227 2.447
-0.82347864 -0.46467495 2.44575
-0.79094088 -0.45374805 2.4445002
-0.75080985 -0.45928839 2.433393
-1.5364101 -0.44354588 2.4361563
-1.5201888 -0.440707 2.4405963
-1.5082308 -0.43466902 2.4474168
-1.2508525 -0.44633973 2.4332502
-0.74915588 -0.44583523 2.4305
-1.5311979 -0.42980447 2.4300001
-1.5205534 -0.42325738 2.4351168
-1.504019 -0.42195714 2.4437115
-1.4881996 -0.41940066 2.4467919
-0.78063416 -0.41654786 2.44575
-1.5151405 -0.40924591 2.4341249
-1.5046903 -0.40452525 2.4400361
-1.4868397 -0.40565574 2.4445558
-1.2516235 -0.3987042 2.4347501
-0.78055441 -0.40581152 2.4455001
-0.7542417 -0.40338528 2.447
-1.5012246 -0.39452526 2.4418335
-1.4843892 -0.39122629 2.4434583
-1.4740191 -0.38321376 2.4446001
-1.2638996 -0.38683397 2.4337502
-1.2551706 -0.38924864 2.4338751
-1.4780868 -0.36471903 2.4448335
-1.467346 -0.36827397 2.4447777
-1.4497318 -0.36565974 2.4451666
-1.4393668 -0.36307335 2.44575
-1.2615087 -0.3771781 2.4332502
-1.2561805 -0.3771781 2.4332502
-1.4796191 -0.35212746 2.444
-1.4640104 -0.3540765 2.4451666
-1.4497976 -0.35231045 2.4452777
-1.4371294 -0.35248622 2.4465001
-1.467271 -0.3363128 2.4400003
-1.4501532 -0.33554 2.439889
-1.4315035 -0.33391094 2.4447501
-1.4125111 -0.33097208 2.4456112
-1.3958083 -0.32969952 2.4418216
-1.4548655 -0.32372719 2.431375
-1.4261161 -0.31652939 2.4425626
-1.4115824 -0.31472 2.444
-1.3927006 -0.31408444 2.4390554
-1.4241146 -0.29832819 2.4410417
-1.414614 -0.30231601 2.4474003
-1.3954103 -0.30342719 2.4391251
-0.78631115 -0.20273258 2.4467502
-0.7832045 -0.19125748 2.4454062
-0.7739315 -0.18628308 2.4415002
-0.77440697 -0.1730442 2.4430003
-0.81102282 -0.11150312 2.4405
-0.81110597 -0.10350977 2.4407501
-0.7575047 -0.063472845 2.4402502
-1.4450505 -0.92747796 2.4563251
-1.4313198 -0.92328155 2.458375
-1.4162035 -0.92015612 2.4590001
-1.4485291 -0.9087624 2.4567504
-1.4306874 -0.90785396 2.4584444
-1.4146024 -0.90789533 2.4585557
-1.3959714 -0.90628445 2.4541945
-1.5145419 -0.88502121 2.4547501
-1.5031542 -0.88732761 2.4537084
-1.4845458 -0.88869095 2.4525626
-1.4680247 -0.89020711 2.4488862
-1.4542942 -0.89185447 2.4528751
-1.5570163 -0.86675322 2.455143
-1.5377079 -0.86669129 2.4549644
-1.5207092 -0.87160361 2.4568186
-1.5032092 -0.87197417 2.4573169
-1.4863616 -0.87473106 2.4614999
-1.4627613 -0.87611246 2.45085
-1.4568964 -0.88054997 2.4572501
-1.5923995 -0.84740818 2.4546251
-1.5725994 -0.8546285 2.4586875
-1.5574652 -0.85620993 2.4614251
-1.5396246 -0.85480547 2.4604723
-1.5232416 -0.85497683 2.4590313
-1.5078542 -0.85839289 2.4591875
-1.6101152 -0.83710533 2.4611669
-1.5927887 -0.83921081 2.4645002
-1.5753348 -0.83910656 2.4649253
-1.5601338 -0.84183532 2.4645002
-1.5403198 -0.84442836 2.4615834
-1.5293313 -0.84431392 2.4612501
-0.7788046 -0.67745769 2.4611251
-0.80027211 -0.57612324 2.4650002
-0.78042185 -0.57879984 2.4535003
-0.81385648 -0.56891036 2.4571252
-0.79966027 -0.56569654 2.4548335
-0.78341806 -0.56829542 2.4544725
-0.77354336 -0.5581941 2.4572501
-1.2960906 -0.54009086 2.4482501
-1.2857633 -0.54025632 2.4490001
-0.79485214 -0.55308247 2.4524376
-0.78210145 -0.55278206 2.4571004
-0.77393687 -0.55310267 2.4585001
-1.3339359 -0.52735549 2.4554169
-1.3229753 -0.53279346 2.4569287
-1.3029141 -0.53265715 2.451
-1.287642 -0.53300256 2.4525833
-1.2753427 -0.52810669 2.4547501
-0.79700762 -0.52724278 2.4632502
-0.78272992 -0.53029376 2.4607501
-0.77141839 -0.52987146 2.4505
-1.4441051 -0.50469899 2.458375
-1.4329753 -0.50457072 2.4577501
-1.4106191 -0.50523794 2.4610002
-1.3947357 -0.51376486 2.4567502
-1.3770902 -0.51286328 2.4588752
-1.3594595 -0.51063174 2.4610624
-1.3410877 -0.51785553 2.4570415
-0.79716939 -0.52196294 2.4637501
-0.78839862 -0.51882249 2.4616251
-1.4627588 -0.48922104 2.45085
-1.449572 -0.49397674 2.4585207
-1.4313992 -0.49420705 2.4596665
-1.4172498 -0.50049734 2.4553752
-1.2585634 -0.5026204 2.4482501
-0.79664361 -0.49201065 2.4621253
-0.78211129 -0.48698395 2.4503751
-0.77094626 -0.49206525 2.4490001
-1.4997163 -0.47295293 2.4498501
-1.484396 -0.47385153 2.453306
-1.4706112 -0.48068833 2.4547083
-1.4503716 -0.48349366 2.4598751
-1.4377099 -0.4837639 2.4612501
-0.81941396 -0.46847486 2.4657502
-0.78495151 -0.47977889 2.4592502
-0.76084179 -0.47639033 2.4510002
-1.5020303 -0.45961362 2.4501252
-1.4904805 -0.46012667 2.4571877
-1.2670041 -0.45669523 2.4507501
-0.82113361 -0.46638492 2.4547501
-0.79627961 -0.46219158 2.4610002
-0.77464515 -0.46752489 2.4607501
-0.76816255 -0.46148729 2.4572501
-1.5157378 -0.44904536 2.4480002
-1.5015411 -0.44265005 2.4490576
-1.4876848 -0.43962836 2.4514689
-1.2666167 -0.44762662 2.45
-1.2518606 -0.43885404 2.4508753
-0.79619867 -0.43524337 2.4607501
-1.4832728 -0.42495328 2.4510498
-0.7967245 -0.42207003 2.4623752
-0.79121202 -0.4246985 2.4620001
-1.4809768 -0.40434536 2.4561501
-1.2711869 -0.39972815 2.4519169
-0.79161376 -0.40875697 2.4632502
-1.477951 -0.39420098 2.4565001
-1.4689037 -0.38409337 2.4580715
-1.4458708 -0.38153774 2.4613752
-1.4361036 -0.3810921 2.4585001
-1.2825562 -0.38830414 2.453125
-1.2775099 -0.38035581 2.4537501
-1.4630289 -0.37502903 2.454
-1.4459867 -0.37241778 2.4570005
-1.4326344 -0.3701413 2.4571669
-1.4291134 -0.35267523 2.4531074
-1.4139733 -0.34443808 2.4590418
-1.4009789 -0.34409344 2.4630001
-1.4246097 -0.34199786 2.4480002
-1.3930861 -0.33139729 2.4567001
-0.82802409 -0.33281562 2.4592502
-0.81898177 -0.33519748 2.4598215
-0.80701649 -0.33034512 2.460875
-1.3902168 -0.31386787 2.4582815
-1.3840494 -0.31161454 2.4616668
-0.81236386 -0.32225811 2.4607501
-0.80697548 -0.32225811 2.4607501
-0.77678436 -0.312879 2.4505
-0.77141839 -0.312879 2.4505
-1.4085282 -0.2991789 2.4480002
-1.3964633 -0.3009378 2.4550834
-0.77670515 -0.30481115 2.4502501
-0.79636043 -0.19317131 2.4612501
-0.78636229 -0.18196398 2.4552503
-0.78656232 -0.17261727 2.4558752
-0.79153341 -0.16099766 2.4630001
-0.77939397 -0.12995608 2.4530835
-0.76699024 -0.12819026 2.4535
-0.78310782 -0.12282588 2.4535
-0.7725203 -0.11480267 2.4540002
-1.4450074 -0.90268868 2.4737501
-1.4295446 -0.90490091 2.4798126
-1.4177922 -0.90606409 2.483
-1.3902267 -0.90893906 2.4662502
-1.459121 -0.8878637 2.4701252
-1.4487315 -0.8961094 2.4755001
-1.432466 -0.89960748 2.4801667
-1.5033808 -0.86412877 2.47175
-1.486047 -0.87047851 2.4744377
-1.4699131 -0.87614757 2.4700835
-1.5324554 -0.84903079 2.4750001
-1.5184902 -0.85448694 2.4699168
-1.5104718 -0.85967988 2.4745002
-1.5689249 -0.84032464 2.48125
-1.5563176 -0.84204423 2.4767501
-1.5437623 -0.84387499 2.4757502
-0.81847125 -0.63366073 2.4792502
-1.336525 -0.52508783 2.4785001
-1.3243548 -0.5272693 2.476042
-1.3063666 -0.52646148 2.4697003
-1.2883415 -0.52499336 2.4671428
-1.4121532 -0.50869828 2.4778752
-1.3948547 -0.513744 2.4760628
-1.3692715 -0.50990844 2.4837501
-1.35624 -0.51045334 2.4798126
-1.3433329 -0.51782501 2.4800503
-1.3249177 -0.52043754 2.4821665
-1.3056831 -0.51574713 2.4791875
-1.2873111 -0.51289791 2.4691114
-1.4282351 -0.49174181 2.4782145
-1.4180707 -0.50249761 2.4740002
-1.2879372 -0.50027132 2.4763753
-1.4809836 -0.47060585 2.4675002
-1.4681212 -0.47499371 2.4716251
-1.4493002 -0.4759213 2.4764583
-1.4370707 -0.48177767 2.4787502
-1.2687185 -0.47160161 2.4679999
-0.79442573 -0.480472 2.4720001
-1.4831151 -0.45692009 2.4680557
-1.4685994 -0.45994666 2.4754794
-1.4559245 -0.46547818 2.4785001
-1.2980449 -0.45541966 2.4827502
-1.2816432 -0.45789993 2.4668751
-0.82174015 -0.46439829 2.4727502
-1.4850701 -0.441192 2.47475
-1.4728155 -0.4473246 2.4779999
-1.2979796 -0.44725448 2.482625
-1.286126 -0.44325444 2.4755001
-1.2705942 -0.43895942 2.4695499
-1.2589269 -0.43687943 2.47
-0.81690359 -0.43587184 2.4745004
-0.80594403 -0.43490446 2.4741251
-1.4880427 -0.42297199 2.4755001
-1.2662665 -0.42972195 2.4702501
-1.2589906 -0.42880028 2.4701252
-0.81140268 -0.42681164 2.4742501
-0.80584908 -0.42133108 2.4738333
-1.4850184 -0.40384707 2.4772501
-1.4667584 -0.4031527 2.4784584
-1.4550462 -0.4002071 2.4770002
-1.2846192 -0.40626585 2.4726253
-1.4804993 -0.39507028 2.4787502
-1.4688538 -0.39214969 2.4774168
-1.4509153 -0.39103293 2.4745939
-1.4357867 -0.3847889 2.4765415
-1.4294151 -0.36820015 2.4772503
-1.426702 -0.35455072 2.4701877
-1.413303 -0.35282952 2.4713502
-1.3982769 -0.34475702 2.4677501
-1.3963227 -0.33614412 2.473875
-0.8015362 -0.32712626 2.4772501
-0.78833407 -0.32456625 2.478375
-1.3871262 -0.31591886 2.474375
-1.3525467 -0.30888525 2.483
-1.3467029 -0.30879197 2.4822502
-0.80071086 -0.31693822 2.4780502
-1.3923892 -0.30266196 2.4765
-1.3557279 -0.30024463 2.4788752
-1.3451062 -0.29743522 2.4780624
-0.80606622 -0.19962157 2.4745002
-0.80335695 -0.19150609 2.4745002
-0.80283165 -0.1730462 2.4812503
-0.83049983 -0.11886201 2.4827499
-1.4365724 -0.90461063 2.5015001
-1.4088126 -0.90664476 2.4895833
-1.3949163 -0.90819317 2.4907188
-1.3830775 -0.911906 2.4841251
-1.3616493 -0.90269172 2.4977002
-1.4653963 -0.88648367 2.4941111
-1.4501185 -0.89214039 2.4910002
-1.437569 -0.8973695 2.4890001
-1.3682386 -0.89102662 2.5017502
-1.3612638 -0.89414418 2.4990001
-1.5153933 -0.86558592 2.4915001
-1.5027311 -0.8688758 2.4931252
-1.4831343 -0.87259388 2.495975
-1.4684908 -0.87638861 2.4978931
-1.5367086 -0.84884799 2.48715
-1.5214788 -0.85443211 2.4907501
-1.5033212 -0.85558385 2.4941041
-1.4880255 -0.85855538 2.4974585
-1.5515515 -0.83989596 2.4853334
-1.5379257 -0.83898151 2.4893439
-1.5269172 -0.84413469 2.4925001
-0.82441354 -0.63280123 2.4972501
-0.74705958 -0.62438935 2.4855001
-1.1475517 -0.55940199 2.4865
-1.1584412 -0.55396545 2.4865
-1.1475517 -0.55396545 2.4865
-1.4091705 -0.50770056 2.4888999
-1.3942701 -0.50837576 2.4895418
-1.3790941 -0.50786364 2.4897001
-1.3576874 -0.50692785 2.4904504
-1.34038 -0.51295269 2.4919689
-1.3219429 -0.51157892 2.4919376
-1.3090352 -0.51045358 2.4864168
-1.424468 -0.49089754 2.4883335
-1.4131727 -0.49456561 2.4908333
-1.394729 -0.49493012 2.4903612
-1.3782175 -0.49608448 2.4936819
-1.363636 -0.499823 2.4966667
-1.3190916 -0.50020701 2.4985836
-1.305721 -0.49358624 2.4914644
-1.2957323 -0.48916912 2.4887502
-0.80956805 -0.48848119 2.4852502
-1.4493032 -0.47132719 2.4951251
-1.4364297 -0.48158613 2.4917502
-1.4071252 -0.48455364 2.493
-1.3978844 -0.48418921 2.4911251
-1.3051029 -0.47971949 2.4962502
-1.2940454 -0.47680688 2.4881253
-0.81886196 -0.47836933 2.4851432
-0.8073262 -0.47866186 2.4850502
-1.4651755 -0.45752731 2.4942501
-1.4514371 -0.46665195 2.48475
-1.3070893 -0.45731223 2.4930835
-1.2949512 -0.46712148 2.4872501
-1.4785191 -0.440263 2.489125
-1.4709789 -0.43827528 2.4902003
-1.3067886 -0.4438957 2.4942503
-1.2875431 -0.43567148 2.4940002
-0.83133614 -0.43414298 2.4852502
-1.4846332 -0.42286277 2.4868126
-1.4674454 -0.42388675 2.4888334
-1.4508018 -0.41993731 2.4977188
-1.4390233 -0.41775626 2.5010002
-1.282082 -0.43021858 2.4940002
-0.83643776 -0.42860621 2.5005002
-0.82039779 -0.4237102 2.4878335
-1.4843563 -0.40968433 2.4852085
-1.4649079 -0.41166025 2.4873002
-1.4467429 -0.40514967 2.4907291
-1.4338453 -0.40215498 2.4958
-1.3034278 -0.40510032 2.4904375
-1.4325894 -0.38714409 2.4925361
-1.3051509 -0.38887247 2.4911251
-1.4294467 -0.37365109 2.4986253
-1.4187915 -0.36343017 2.48475
-1.4110152 -0.3533344 2.4902503
-1.3992891 -0.33201909 2.4936252
-1.3891674 -0.31522226 2.4901669
-1.3777708 -0.31510994 2.4892778
-1.3605332 -0.31565449 2.4887781
-1.3476164 -0.31025365 2.4940002
-1.4043031 -0.29862759 2.4880002
-1.3927927 -0.30090642 2.4888501
-1.376348 -0.29930019 2.4879375
-1.3635024 -0.2969842 2.485625
-1.3403791 -0.29935756 2.4940834
-0.80932367 -0.18956393 2.4845002
-0.82988191 -0.16869651 2.4972501
-0.81005663 -0.16798721 2.4867501
-0.8178795 -0.07577683 2.4940002
-0.80687612 -0.075769231 2.4937501
-0.83211827 -0.062190108 2.49575
-0.81684643 -0.06577 2.4936249
-0.83401221 -0.053948797 2.4932501
-0.82203406 -0.044137947 2.4933503
-0.82880193 -0.032153234 2.4940002
-0.82048678 -0.026695993 2.4936252
-1.3794705 -0.91855955 2.5022502
-1.4293712 -0.90540087 2.5051999
-1.4151366 -0.90541905 2.50525
-1.3952711 -0.90398782 2.5035627
-1.380242 -0.90699041 2.5024064
-1.3581531 -0.90070707 2.5135002
-1.4479116 -0.88921714 2.5121138
-1.4316527 -0.8920244 2.5092003
-1.4136193 -0.88947111 2.5072861
-1.3964959 -0.89035797 2.5068865
-1.3782108 -0.88888925 2.5056608
-1.3620119 -0.89015865 2.5121667
-1.4788439 -0.86556172 2.5151875
-1.4659755 -0.87180746 2.514375
-1.449501 -0.87377816 2.51825
-1.4308903 -0.87395293 2.5155838
-1.413114 -0.87317878 2.513361
-1.397593 -0.87540662 2.5162499
-1.5312259 -0.84955341 2.5085001
-1.520593 -0.849751 2.5090835
-1.50466 -0.85006142 2.5100002
-1.4876391 -0.8552385 2.5091074
-1.4608469 -0.85887265 2.5197501
-1.4480274 -0.85753417 2.5178437
-1.4309051 -0.85746181 2.5156112
-1.4130822 -0.86077422 2.5161073
-1.5367943 -0.83725494 2.508625
-1.5216181 -0.83934259 2.510778
-1.5084248 -0.8427999 2.5101669
-1.1525564 -0.55903393 2.5092502
-1.1745842 -0.54954255 2.5035
-1.1601292 -0.55323052 2.5078125
-1.3581638 -0.50691164 2.5160627
-1.3429252 -0.50721467 2.5107501
-1.4293541 -0.48654592 2.5032501
-1.391583 -0.48675647 2.5043335
-1.3738189 -0.49623036 2.5153334
-1.360833 -0.49776149 2.5184584
-1.3405308 -0.49781677 2.5152812
-1.3244547 -0.49309251 2.5087502
-1.4457741 -0.47436574 2.5063751
-1.4306124 -0.4761838 2.5089548
-1.4144663 -0.4797805 2.5079503
-1.4013715 -0.48181742 2.5071251
-1.321332 -0.47816482 2.5167501
-1.4640362 -0.45679784 2.5082002
-1.4497828 -0.46064395 2.50825
-1.4370451 -0.46169767 2.5095
-1.3326188 -0.45074055 2.5172501
-1.3247082 -0.45864287 2.5153127
-1.4656692 -0.44369364 2.5057046
-1.448334 -0.44353881 2.5076392
-1.431051 -0.44069651 2.5106733
-1.4155239 -0.43798828 2.5162501
-1.3341967 -0.43979794 2.5176251
-1.322513 -0.43872809 2.5160003
-1.3053609 -0.43615907 2.5093503
-1.2942544 -0.43246108 2.5070002
-0.85077715 -0.43306485 2.5105002
-1.4622438 -0.43181419 2.5032501
-1.4473864 -0.42947534 2.5032859
-1.4308568 -0.4227742 2.5095963
-1.414389 -0.42343077 2.5144062
-1.3330159 -0.42610043 2.5180001
-1.3212744 -0.42311901 2.516639
-1.3039197 -0.42470476 2.5097501
-1.2912846 -0.42416501 2.5065627
-0.85627449 -0.42208678 2.5105002
-0.84059548 -0.42043093 2.5088127
-1.4305452 -0.40658092 2.5130503
-1.4192605 -0.41176373 2.5145001
-1.3212008 -0.41209126 2.5165002
-1.4292965 -0.38638666 2.5103753
-1.4108624 -0.37948003 2.5191667
-1.3188381 -0.38938513 2.5120001
-1.3134682 -0.38393104 2.5122502
-1.4263178 -0.37177062 2.5043335
-1.4123012 -0.36725891 2.5074999
-1.4022344 -0.36830872 2.5086875
-1.3739595 -0.36267999 2.5172501
-1.3665054 -0.36289611 2.5187502
-1.4103241 -0.35111532 2.5133126
-1.3927044 -0.34775198 2.51875
-1.375231 -0.35181195 2.5132816
-1.36195 -0.35043612 2.517139
-1.4067365 -0.3385427 2.5150836
-1.3961033 -0.33453077 2.5124643
-1.3758149 -0.33279419 2.5035748
-1.3645974 -0.33628193 2.5118752
-1.3560991 -0.31978899 2.5046253
-1.344552 -0.30982769 2.5052502
-1.3421876 -0.29510266 2.50425
-0.84164304 -0.27938154 2.5105836
-0.8415311 -0.26653782 2.5102501
-0.82423329 -0.18627146 2.5133753
-0.83820105 -0.17532469 2.5139999
-0.83445132 -0.08727359 2.5110002
-0.86939257 -0.056171399 2.5113332
-0.85574901 -0.059045814 2.5069375
-0.84267038 -0.056890674 2.5027499
-0.81367087 -0.070908971 2.51475
-0.78676289 -0.070965365 2.5167501
-0.85462618 -0.043260738 2.505667
-0.84146875 -0.041849717 2.5032501
-0.83461833 -0.026827658 2.506
-1.3709812 -0.91659498 2.5270002
-1.3617961 -0.9123317 2.5305002
-1.3727484 -0.8891446 2.5353751
-1.4113339 -0.86679858 2.5348749
-1.3963772 -0.87812829 2.5329168
-1.3801998 -0.88075638 2.5256503
-1.5004619 -0.84841496 2.5214167
-1.4827975 -0.85300189 2.5207188
-1.4676182 -0.85300183 2.5207188
-1.4489597 -0.84782749 2.5279064
-1.4308125 -0.85151452 2.5251667
-1.5463674 -0.83281106 2.52425
-1.5158615 -0.83592391 2.5225418
-1.5009984 -0.83689052 2.5232501
-1.4852508 -0.83673447 2.5227752
-1.4686222 -0.84030002 2.5260313
-1.4563401 -0.8429299 2.5215001
-1.4820675 -0.82688224 2.523
-1.1556331 -0.5632112 2.5280001
-1.1770644 -0.55013049 2.5288503
-1.161284 -0.55405372 2.52825
-0.85981548 -0.52472764 2.529
-1.3898072 -0.4899959 2.5210001
-1.3786097 -0.49134549 2.5279641
-1.3550072 -0.49050805 2.53075
-1.3404158 -0.49111348 2.5267501
-1.4278117 -0.46957028 2.5223126
-1.4128075 -0.47330996 2.5238752
-1.3978257 -0.47814319 2.5263546
-1.3851106 -0.48477215 2.5225
-1.3415107 -0.47768995 2.5288126
-1.3318845 -0.47722012 2.5263128
-1.4309069 -0.45756972 2.5217955
-1.414681 -0.45921367 2.526
-1.3419257 -0.45939833 2.5285499
-1.4132385 -0.44264698 2.5234168
-1.341121 -0.44071972 2.5228753
-1.4105216 -0.42032149 2.5329773
-1.3404204 -0.42249161 2.5293751
-0.83918685 -0.41904539 2.5252502
-1.4251562 -0.40066445 2.5225
-1.4128431 -0.40415239 2.5313907
-1.3403215 -0.40223238 2.5352919
-1.4255049 -0.38647094 2.5216501
-1.4104989 -0.38913715 2.5262222
-1.3988887 -0.38210917 2.5274377
-1.3556073 -0.38633689 2.5370626
-1.3424134 -0.38752261 2.5357499
-1.3223743 -0.38296688 2.5240002
-1.3139545 -0.38017046 2.5237501
-1.40595 -0.36311221 2.5202501
-1.394014 -0.36911827 2.5236251
-1.3769372 -0.37067357 2.5300558
-1.3586688 -0.3707816 2.5350001
-1.346079 -0.37213928 2.5348125
-1.3234257 -0.37262222 2.52495
-1.4058802 -0.35482925 2.5201252
-1.3963201 -0.3554759 2.5208001
-1.3563372 -0.35576349 2.5306501
-1.3575587 -0.33208659 2.5217707
-1.346514 -0.3317382 2.5247002
-0.8818922 -0.3266646 2.5367501
-1.3549317 -0.31936178 2.5228751
-1.3440361 -0.31511432 2.5242
-1.3421842 -0.29753286 2.5248752
-0.83645582 -0.29645312 2.5274377
-0.83820027 -0.28498563 2.5278332
-0.85321587 -0.25558329 2.5285835
-0.84521818 -0.2590822 2.5267501
-0.84505093 -0.18170248 2.5262501
-0.84505093 -0.17065555 2.5262501
-0.87607771 -0.065963924 2.536
-0.85258222 -0.028490521 2.5321875
-0.84538543 -0.027056249 2.5272501
-1.3686143 -0.90577751 2.5431669
-1.357305 -0.9065119 2.5466595
-1.3424269 -0.906569 2.5548003
-1.3757311 -0.88970363 2.5481
-1.3544241 -0.89692801 2.5549171
-1.3452753 -0.89704496 2.5552502
-1.4302301 -0.86487818 2.55375
-1.4128104 -0.87564301 2.5525835
-1.3952647 -0.88073713 2.5511668
-1.3845445 -0.88102478 2.552
-1.4432062 -0.85070711 2.5503335
-1.43257 -0.85808867 2.5446668
-1.4795684 -0.83213866 2.5424502
-1.4666382 -0.83596647 2.5483215
-1.45087 -0.83953905 2.5497501
-1.4641641 -0.82600862 2.5544169
-1.4533094 -0.82619733 2.5550001
-1.1598788 -0.56242692 2.5495002
-1.1939385 -0.54468727 2.5447502
-1.176841 -0.54588395 2.5451503
-1.1653723 -0.55402488 2.5493128
-1.376945 -0.48873585 2.5431252
-1.3624202 -0.48851967 2.5420001
-1.3935539 -0.47533444 2.5436785
-1.377261 -0.47849208 2.5451138
-1.3602623 -0.4776212 2.5431669
-1.4101778 -0.45870009 2.5461669
-1.3952985 -0.45961228 2.5512295
-1.3777441 -0.45908022 2.5527146
-1.3612728 -0.46067241 2.5467918
-1.410427 -0.44117567 2.5441043
-1.3954475 -0.4410491 2.55355
-1.3582329 -0.43894365 2.5445836
-1.4067355 -0.42659116 2.5483334
-1.3949693 -0.42237014 2.5486002
-1.37707 -0.41957763 2.5536876
-1.3597304 -0.42114815 2.549125
-1.3461185 -0.41638982 2.5427501
-1.3947027 -0.40482843 2.5399723
-1.3796009 -0.40611586 2.5480416
-1.3603413 -0.40668154 2.5472188
-1.3454566 -0.41062832 2.5415001
-1.3935603 -0.38873732 2.5391564
-1.378261 -0.38931563 2.5441592
-1.3638272 -0.38835454 2.5411668
-1.3716617 -0.37684217 2.5385001
-0.8534137 -0.25601622 2.5512502
-0.86695814 -0.24128318 2.5527503
-0.85762799 -0.24571984 2.5519288
-0.87233561 -0.2258791 2.5510502
-0.85675216 -0.23106188 2.552875
-0.88484722 -0.21089408 2.5452502
-0.87301379 -0.21072836 2.5432501
-0.85470736 -0.18258357 2.5385001
-0.85470736 -0.17148307 2.5385001
-0.88680583 -0.13009572 2.5541003
-0.86885029 -0.1296593 2.5528336
-0.89942628 -0.12232079 2.5550001
-0.88246924 -0.094370715 2.5545001
-0.88981152 -0.081328757 2.554167
-0.8685106 -0.085712396 2.5463753
-0.89031982 -0.067480236 2.5513501
-0.88151926 -0.071952268 2.5517502
-0.91039312 -0.024554577 2.5543752
-0.89458597 -0.021649873 2.5412502
-0.9003278 -0.016096782 2.5417502
-0.89299434 -0.010540103 2.5420001
-0.90426838 0.025695466 2.552875
-0.89152974 0.024772808 2.55375
-1.3229303 -0.90515798 2.5571251
-1.3903035 -0.882649 2.5730002
-1.3781824 -0.88984424 2.56675
-1.3605598 -0.89012837 2.558125
-1.3406894 -0.89108038 2.56005
-1.3227752 -0.89812255 2.5650003
-1.3052831 -0.89917636 2.572
-1.4268532 -0.86792624 2.5627501
-1.4121374 -0.87278187 2.5688038
-1.3960539 -0.8731941 2.5722728
-1.3850728 -0.87727886 2.57375
-1.3552505 -0.87818944 2.5600002
-1.3495128 -0.87810367 2.5597501
-1.4431794 -0.85068762 2.5648501
-1.4302309 -0.85593969 2.5637751
-1.4123752 -0.85500968 2.5660253
-1.3964634 -0.85359496 2.5718999
-1.4808867 -0.82910758 2.5640001
-1.4284238 -0.84248608 2.5706251
-1.4123725 -0.83825982 2.5653336
-1.4002964 -0.83958113 2.5686002
-1.1229811 -0.57195562 2.56725
-0.99638647 -0.55909133 2.5597501
-1.1967303 -0.54164797 2.5566669
-1.1824832 -0.54153323 2.5561252
-1.1613021 -0.54765558 2.5619063
-1.1235129 -0.55054826 2.5721428
-1.1961544 -0.53207642 2.5605717
-1.1761718 -0.53119826 2.5647919
-1.1634456 -0.53266448 2.5717916
-1.3877319 -0.43844038 2.5578752
-1.3770299 -0.44139621 2.5588057
-1.3871894 -0.42708948 2.5568752
-1.3784434 -0.42806202 2.5593503
-1.3549858 -0.29042107 2.5595002
-0.87580115 -0.13977382 2.5677502
-0.90281391 -0.11472745 2.5726252
-0.89977837 -0.074866369 2.5560002
-0.90092242 -0.066568129 2.5592501
-0.82798839 -0.066561624 2.559
-0.92033446 -0.021864986 2.5665002
-0.92024481 -0.016251938 2.5662501
-0.91435808 -0.010637909 2.5655
-1.3741121 -0.88310641 2.5743334
-1.3525704 -0.88376385 2.5762501
-1.3409448 -0.89042306 2.5828612
-1.3230829 -0.89184254 2.5792501
-1.3081999 -0.89085203 2.57775
-1.3764207 -0.87150139 2.5748184
-1.3579214 -0.87190855 2.5778499
-1.3454775 -0.8733871 2.5788751
-1.4473484 -0.84930736 2.5742502
-1.3891929 -0.85093921 2.5849168
-1.3781018 -0.85850871 2.5765314
-1.3606926 -0.85998124 2.5809584
-1.4604615 -0.8350898 2.5825
-1.4502845 -0.84197652 2.5820003
-1.4291544 -0.83520436 2.5872502
-1.4118745 -0.83386022 2.5857003
-1.3980418 -0.84305078 2.5838335
-1.1189915 -0.55873823 2.5840001
-1.1134409 -0.55879229 2.5842502
-1.1430092 -0.54539967 2.5743752
-1.1219872 -0.54658324 2.5844169
-1.1102469 -0.55437279 2.5900002
-1.048367 -0.54330915 2.5912502
-1.0363194 -0.54577351 2.5895002
-1.2300587 -0.52636319 2.5915
-1.2154483 -0.52777451 2.5845833
-1.1894339 -0.52910382 2.57725
-1.1808777 -0.52488822 2.575
-1.1561441 -0.5322575 2.5743334
-1.143231 -0.53706062 2.5748751
-1.1299566 -0.5374496 2.57675
-1.0485693 -0.53774732 2.5917501
-1.2241478 -0.52059662 2.5910001
-1.2178862 -0.52034545 2.5897501
-1.3662355 -0.30976012 2.5807502
-1.3567291 -0.29845577 2.5805836
-0.92646009 -0.20423949 2.5783336
-0.93638378 -0.19683136 2.5797501
-0.92335737 0.017579822 2.5907502
-1.3371041 -0.88583469 2.5922
-1.3233551 -0.88547051 2.5936251
-1.308369 -0.89298964 2.5948751
-1.3550199 -0.86720186 2.6026251
-1.3396913 -0.87552404 2.5977814
-1.3275805 -0.88024533 2.5991251
-1.394801 -0.85291052 2.6024168
-1.3784105 -0.85904008 2.60375
-1.3676646 -0.85945249 2.605
-1.4523078 -0.84018284 2.5982502
-1.4268061 -0.83053565 2.6036253
-1.412169 -0.8360002 2.6029167
-1.1112114 -0.56052208 2.5922501
-1.0915504 -0.5620898 2.5995002
-1.0739269 -0.56353962 2.6009502
-1.1227787 -0.54638177 2.6059167
-1.1055931 -0.55346823 2.5990624
-1.0894616 -0.55394828 2.6013126
-1.0716195 -0.54996026 2.604861
-1.0550934 -0.55244964 2.6022503
-1.1403668 -0.53387702 2.6005001
-1.1285669 -0.53800666 2.5930002
-1.0644183 -0.53433889 2.6027501
-1.0578485 -0.53813636 2.5936251
-1.2294111 -0.51310587 2.5961249
-1.218237 -0.51129675 2.5965416
-0.94119322 -0.51249433 2.5930002
-0.94119322 -0.50399023 2.5930002
-1.7163613 -0.31073198 2.6078503
-1.7048706 -0.31279081 2.6060002
-1.3612164 -0.30680817 2.6035836
-1.3561523 -0.29602194 2.6016786
-1.3432107 -0.29340336 2.6045938
-1.3577838 -0.27849895 2.5983751
-1.3429693 -0.27891415 2.6035752
-1.3532624 -0.26651603 2.5992501
-1.3450564 -0.26714835 2.605417
-0.95557988 -0.14159736 2.6012502
-0.95107067 -0.13893081 2.6045001
-0.93795055 -0.027832421 2.59975
-0.93230259 -0.030676115 2.599875
-1.3095576 -0.90163076 2.6200001
-1.3372914 -0.8828485 2.6237502
-1.3211509 -0.88850784 2.6221254
-1.3079125 -0.88928473 2.6224501
-1.3695413 -0.86423641 2.6195002
-1.3570514 -0.86660975 2.61975
-1.3404573 -0.87156701 2.6243334
-1.320601 -0.87173432 2.6248333
-1.3060652 -0.87162405 2.6245
-1.3929238 -0.85234869 2.618175
-1.3761963 -0.85335004 2.6212502
-1.3587896 -0.85323292 2.6208892
-1.3473684 -0.85613525 2.6210001
-1.3150615 -0.86039346 2.6252501
-1.3091882 -0.86031157 2.6250002
-1.4108778 -0.83811563 2.6171429
-1.4011062 -0.84267157 2.6177502
-1.3739837 -0.84096545 2.6243334
-1.363627 -0.84048504 2.6228335
-1.1047355 -0.54876059 2.6172502
-1.0869187 -0.54653984 2.6157503
-1.1428126 -0.53254873 2.6125834
-1.0752571 -0.53690511 2.6152501
-1.0595942 -0.53767502 2.6190002
-0.9825967 -0.52975297 2.6175835
-1.2490854 -0.51368898 2.6135001
-1.2406198 -0.50802332 2.6137502
-0.95390064 -0.51344329 2.6122501
-1.2529049 -0.49978366 2.6155002
-1.2348963 -0.50230855 2.6137502
-0.97503936 -0.46257043 2.6152501
-1.734271 -0.30826154 2.615917
-1.7130384 -0.30908149 2.6228752
-1.7046671 -0.31199348 2.62325
-1.373201 -0.31525135 2.6265001
-1.3599724 -0.31390235 2.623167
-1.3486536 -0.30915517 2.6235001
-1.7495458 -0.29293227 2.6195002
-1.7344682 -0.29890892 2.6199286
-1.7175884 -0.30313718 2.6210625
-1.3397369 -0.29837918 2.6195502
-1.337011 -0.27881709 2.6187
-1.3256271 -0.27815089 2.6196251
-1.3396095 -0.26405159 2.6170626
-1.325618 -0.26509064 2.6188502
-0.96485555 -0.16594243 2.6265001
-0.96301872 -0.15416382 2.6215
-0.95171952 -0.15992531 2.6220002
-0.93960899 -0.12544465 2.6202502
-0.94513953 -0.030816093 2.6117501
-1.315173 -0.91036928 2.6370001
-1.307745 -0.90546131 2.6395001
-1.3021865 -0.89114225 2.6355627
-1.2934525 -0.88572508 2.6437502
-1.3037164 -0.8722676 2.6388571
-1.2935336 -0.8761456 2.6439168
-1.4003263 -0.84606433 2.6342502
-1.354949 -0.85159463 2.6395001
-1.3427743 -0.86038196 2.6322501
-1.3235654 -0.86152482 2.6345832
-1.3134952 -0.86116463 2.6452501
-1.4228592 -0.8342284 2.6332502
-1.410539 -0.83487636 2.6398752
-1.3930123 -0.83787745 2.6357002
-1.3769386 -0.83452886 2.6368217
-1.3624703 -0.84259439 2.6354167
-1.4061736 -0.82646275 2.6452501
-1.1366789 -0.54311907 2.6315002
-1.1236821 -0.54763716 2.6347919
-1.105719 -0.54420674 2.6298127
-1.0926318 -0.54557985 2.6295002
-1.0571115 -0.54080582 2.6342502
-1.0182751 -0.54895145 2.64575
-1.1583794 -0.52654958 2.635
-1.1469209 -0.53235614 2.6351876
-1.1175727 -0.53211594 2.6340001
-1.1048201 -0.53555483 2.6311002
-1.090012 -0.53995895 2.630125
-0.99314117 -0.52613187 2.632875
-0.98435318 -0.52605712 2.6325002
-1.2247144 -0.50519121 2.6287501
-1.1902778 -0.51346558 2.6417501
-1.1862227 -0.51747257 2.63275
-0.9931885 -0.51176488 2.6330001
-0.97863537 -0.51169223 2.6326251
-0.96678418 -0.51727605 2.6317501
-1.2660933 -0.49111438 2.6334002
-1.2516606 -0.49567896 2.6355
-1.2337596 -0.49960992 2.6296251
-1.2816663 -0.47721416 2.6393502
-1.2666737 -0.4793618 2.6342084
-1.3714192 -0.33485278 2.6452501
-1.361488 -0.32952014 2.6372499
-1.3534334 -0.32032844 2.6328125
-1.3465768 -0.31354961 2.6363127
-1.7694048 -0.29472664 2.6312501
-1.7597129 -0.30396843 2.6282501
-1.7363222 -0.29507157 2.6386251
-1.7267865 -0.2994985 2.6395001
-1.3404576 -0.29905742 2.6356251
-1.7889833 -0.2808837 2.635036
-1.7758144 -0.28383085 2.6333499
-1.7579222 -0.28690627 2.6298752
-1.3322434 -0.28762904 2.6365001
-1.3213383 -0.27643892 2.6397088
-1.3126262 -0.27105322 2.6435001
-1.3159212 -0.2647717 2.6385002
-1.3018475 -0.26254413 2.6451249
-1.2812805 -0.2618961 2.6385627
-1.2741512 -0.25527504 2.6397502
-0.97914624 -0.20097056 2.6340001
-0.97328609 -0.16640049 2.6337502
-0.98019952 -0.15506406 2.6368334
-0.95444179 0.50077641 2.6295002
-0.95855248 0.51293826 2.6328752
-0.96972305 0.52581501 2.6397502
-1.2998114 -0.90220404 2.6468751
-1.2854726 -0.90290242 2.6531875
-1.296608 -0.89620513 2.64625
-1.2843678 -0.89099729 2.6497002
-1.3143767 -0.86555952 2.6587501
-1.3027068 -0.86844856 2.6587086
-1.2896844 -0.8752383 2.6528749
-1.3523579 -0.85219353 2.6533334
-1.3420652 -0.85891342 2.6502085
-1.3250829 -0.86044914 2.6549585
-1.3077921 -0.86116111 2.663125
-1.3697871 -0.83478957 2.6533334
-1.3616738 -0.84219933 2.6511002
-1.3365109 -0.83177412 2.66225
-1.3209449 -0.83114928 2.6602499
-1.3356953 -0.82544911 2.660625
-1.3231101 -0.81905431 2.6587501
-1.3076319 -0.82138133 2.6568751
-1.1411183 -0.54245985 2.6593003
-1.1309105 -0.54439849 2.6517501
-1.0548031 -0.54557896 2.6575
-1.0242622 -0.55484098 2.64625
-1.1729101 -0.52630931 2.6482501
-1.1604762 -0.5256626 2.6596251
-1.1442453 -0.53105861 2.6596072
-1.1257061 -0.52922052 2.6531668
-1.1068206 -0.53285241 2.6520002
-1.0898532 -0.53839755 2.6507502
-1.0700258 -0.53836173 2.6563001
-1.0533272 -0.53358722 2.6592813
-1.0403529 -0.53400832 2.6577501
-0.98195404 -0.52794021 2.6467502
-1.2367098 -0.50843221 2.6607502
-1.2194598 -0.50561845 2.6612501
-1.1986063 -0.50877059 2.6473751
-1.1805981 -0.51174396 2.6519091
-1.1667943 -0.51876652 2.6541252
-1.1197193 -0.52140361 2.65275
-1.1139103 -0.52140361 2.65275
-0.97809017 -0.52022433 2.6467502
-1.2634029 -0.48825425 2.6617501
-1.2510791 -0.49768901 2.6603334
-1.2400888 -0.4998937 2.6617501
-1.2158378 -0.49649477 2.66225
-1.1978204 -0.5005849 2.6566432
-1.2858242 -0.46940219 2.6538751
-1.2687484 -0.47594428 2.6526251
-1.0002569 -0.47686297 2.6502004
-1.284286 -0.46515006 2.6627502
-1.0001976 -0.45703521 2.6561999
-0.98555869 -0.45154762 2.6512501
-1.3541111 -0.36535248 2.6567502
-1.3562305 -0.35075974 2.6518002
-1.3475323 -0.35353628 2.6552501
-1.3540906 -0.3353444 2.6491253
-1.3460648 -0.33139807 2.6546502
-1.7185807 -0.30638272 2.6491251
-1.7003037 -0.31150413 2.6631999
-1.6833736 -0.3108108 2.66225
-1.3427125 -0.3140156 2.6549251
-1.3236638 -0.31344125 2.6598752
-1.3087435 -0.30993789 2.6630833
-1.7484211 -0.28866544 2.6460001
-1.7372761 -0.29047793 2.652
-1.7250499 -0.29860726 2.6486666
-1.6956697 -0.30219334 2.6632502
-1.6866841 -0.30215079 2.6628752
-1.3375477 -0.29699299 2.6572502
-1.3225365 -0.29930496 2.6634586
-1.304148 -0.29708421 2.663125
-1.2902799 -0.29225108 2.6610835
-1.7897558 -0.2781159 2.65575
-1.771932 -0.28293362 2.6465001
-1.3148711 -0.27271944 2.6597502
-1.300671 -0.2803469 2.6585002
-1.285921 -0.27794859 2.6540999
-1.2734984 -0.27404636 2.6585002
-1.3034234 -0.26421633 2.6522501
-1.2906915 -0.2655243 2.6460001
-1.2711869 -0.26214951 2.6536789
-0.99736536 -0.1714204 2.6579502
-0.99445593 0.37074977 2.6556251
-0.98651904 0.37195015 2.6538336
-1.0001787 0.37852851 2.65925
-0.98460174 0.38104123 2.6565001
-0.96978527 0.52900201 2.65575
-1.2834148 -0.90906376 2.6670001
-1.2729744 -0.90561599 2.66715
-1.2828134 -0.88823831 2.66575
-1.2717541 -0.89269203 2.6684165
-1.2883769 -0.87219149 2.6672084
-1.3555202 -0.85088062 2.6726429
-1.3410931 -0.85214615 2.671375
-1.323862 -0.85338712 2.6661253
-1.3037143 -0.85346198 2.6673889
-1.2922077 -0.85707825 2.673125
-1.3695264 -0.84176368 2.6755002
-1.3562577 -0.8380186 2.6747501
-1.3401549 -0.83987594 2.6695001
-1.3236322 -0.84158438 2.6656668
-1.307287 -0.83938128 2.6713183
-1.3030828 -0.82294983 2.6714165
-1.159914 -0.52646488 2.6785002
-1.1434927 -0.52565408 2.6743751
-1.1324228 -0.52459764 2.6690001
-1.1070805 -0.53025728 2.6723218
-1.0858307 -0.53561044 2.6730001
-1.0703408 -0.52977431 2.6716003
-1.0541105 -0.52830195 2.6779168
-1.1768861 -0.51448101 2.6770833
-1.1367718 -0.52075428 2.6792502
-1.1219323 -0.51751643 2.6746502
-1.1135122 -0.52085149 2.6797502
-1.2325314 -0.49299538 2.6664169
-1.2139338 -0.48946187 2.6683333
-1.1980149 -0.49665219 2.6756432
-1.3058158 -0.47243118 2.671
-1.2703043 -0.47119305 2.664
-1.2448642 -0.47845021 2.6720002
-1.2333461 -0.47896612 2.6708124
-1.2184169 -0.48424697 2.6717501
-1.01972 -0.47109351 2.6800003
-1.3195055 -0.45661449 2.6810002
-1.3052697 -0.45965147 2.6769774
-1.2868137 -0.4568004 2.6723216
-1.2750719 -0.4621945 2.6709375
-1.0162159 -0.45770049 2.6759169
-1.3044648 -0.44476643 2.6802502
-1.2871523 -0.44660097 2.6772001
-1.2768013 -0.44725627 2.6776252
-1.0121491 -0.44982797 2.6755002
-1.001397 -0.44894528 2.6702502
-1.3574115 -0.38034001 2.6805
-1.3461742 -0.3804819 2.6815
-1.3582629 -0.37053755 2.6802502
-1.3460487 -0.36872208 2.6812503
-1.3537611 -0.35085201 2.6790836
-1.3423196 -0.35092872 2.6796668
-1.3264999 -0.34757218 2.6809001
-1.3524557 -0.33588317 2.6765001
-1.3402063 -0.33282757 2.6754446
-1.3228192 -0.33287674 2.6758335
-1.7184166 -0.3134262 2.6696002
-1.7079742 -0.30813199 2.6642501
-1.6729702 -0.31395718 2.6642501
-1.3147068 -0.32062256 2.6712501
-1.3052261 -0.31386906 2.6734002
-1.7314727 -0.29359633 2.6645002
-1.7187386 -0.2957215 2.6669779
-1.703563 -0.29885632 2.6646502
-1.322888 -0.29064736 2.6641667
-1.3111385 -0.29062915 2.664
-1.2870388 -0.29877746 2.6731942
-1.2753956 -0.29701754 2.6796002
-1.809896 -0.2740396 2.6726253
-1.7898459 -0.28286907 2.6732502
-1.3218123 -0.28251165 2.6643503
-1.3098954 -0.27902544 2.6644378
-1.279012 -0.28544596 2.6700001
-1.2733939 -0.28399006 2.6745834
-1.8226833 -0.26585722 2.6785002
-1.814646 -0.26889855 2.679625
-1.0039868 -0.16573185 2.6693749
-1.0005428 -0.15510307 2.6705835
-1.8185139 -0.08732038 2.6810002
-1.8123258 -0.079021908 2.6729686
-0.99595976 0.3545959 2.66875
-0.98617387 0.347772 2.6686251
-1.0114487 0.37012091 2.6684999
-1.0008298 0.36237571 2.66875
-1.0294363 0.49184963 2.6747501
-1.0294363 0.51524222 2.6747501
-0.9628247 0.53384924 2.6727502
-1.2823617 -0.8852278 2.683125
-1.2653234 -0.89444548 2.6843753
-1.2504339 -0.89276862 2.6881669
-1.2412003 -0.89318377 2.6894169
-1.2853929 -0.8752349 2.6833217
-1.2742409 -0.87396908 2.6845834
-1.2452779 -0.87530601 2.6886878
-1.241008 -0.88128674 2.6890001
-1.2990546 -0.84931451 2.6995001
-1.2822778 -0.85649341 2.6850002
-1.2699387 -0.85601872 2.6861432
-1.2518526 -0.86300647 2.687
-1.3019512 -0.83956581 2.6871877
-1.3041999 -0.82149643 2.68575
-1.1704583 -0.52269793 2.6892502
-1.1591113 -0.5228923 2.6902502
-1.1473298 -0.5228923 2.6902502
-1.105215 -0.52831566 2.6922147
-1.0903043 -0.52759302 2.6928215
-1.0698509 -0.52245498 2.6880004
-1.0537345 -0.52851939 2.6949501
-1.0430347 -0.52965879 2.6947501
-1.1795119 -0.51158023 2.6926429
-1.1614778 -0.51517993 2.6930001
-1.1403456 -0.51469564 2.6904502
-1.1236974 -0.51324093 2.6936252
-1.1145675 -0.51821136 2.6965001
-1.0886022 -0.51849961 2.698
-1.0735675 -0.51837152 2.6973336
-1.0614259 -0.51821136 2.6965001
-1.2669926 -0.49071419 2.6858332
-1.2547289 -0.49262872 2.6856
-1.2133234 -0.48689777 2.6863751
-1.1979698 -0.49372268 2.6915417
-1.2685848 -0.47476906 2.6875501
-1.2529947 -0.47410294 2.6915834
-1.2318943 -0.47843829 2.688375
-1.0302763 -0.47030333 2.69225
-1.3238591 -0.45123601 2.6838751
-1.2757438 -0.46364069 2.6877501
-1.0301807 -0.46143091 2.6920002
-1.0242859 -0.45260209 2.6920002
-1.3361105 -0.43379331 2.684875
-1.3195143 -0.43870413 2.6850002
-1.3031543 -0.4384813 2.6866252
-1.2871512 -0.43707132 2.6870003
-1.3373886 -0.42441571 2.6874583
-1.3261367 -0.4285008 2.6884999
-1.2947235 -0.42881957 2.6905
-1.3372252 -0.38128003 2.6871252
-1.3355157 -0.37006706 2.6825001
-1.3266242 -0.36722133 2.6886427
-1.3222804 -0.35443676 2.6896563
-1.3200045 -0.33513331 2.6940002
-1.6805416 -0.31097516 2.6888335
-1.6708409 -0.31209317 2.6985002
-1.3075601 -0.31730708 2.692667
-1.2894304 -0.3113125 2.6917503
-1.2779984 -0.31139922 2.6925001
-1.7770383 -0.28846613 2.6982501
-1.7129971 -0.29452932 2.6997502
-1.6985193 -0.29649708 2.6908751
-1.6856804 -0.30352795 2.6923335
-1.2743043 -0.30360615 2.6930001
-1.8120806 -0.27320874 2.6932502
-1.7937727 -0.28318435 2.6901252
-1.76834 -0.2825928 2.6985002
-1.7547426 -0.2829996 2.6912501
-1.7392279 -0.28562501 2.6900415
-1.7264049 -0.28790486 2.6930001
-1.2725289 -0.27437013 2.6903126
-1.824872 -0.26115164 2.6903753
-1.2795119 -0.25812873 2.6895003
-1.2736963 -0.26577637 2.6875832
-1.8366333 -0.099708967 2.6990001
-1.8286414 -0.095176518 2.6959376
-1.820507 -0.087841496 2.697
-1.8125302 -0.08493489 2.6983125
-1.0169051 0.36311132 2.6958752
-0.97876108 0.39562222 2.6965001
-0.9842093 0.41311774 2.69525
-1.2459139 -0.90085 2.7125001
-1.2455693 -0.88874173 2.71175
-1.2508371 -0.87345684 2.7103124
-1.287709 -0.8496291 2.7005
-1.2705506 -0.85279596 2.7068
-1.2594234 -0.86231524 2.7032502
-1.3018287 -0.83659238 2.70035
-1.287607 -0.83602029 2.7018437
-1.2764138 -0.84112257 2.7016251
-1.3057513 -0.82324946 2.7011251
-1.2898929 -0.82428968 2.7026
-1.1906515 -0.50638717 2.7174168
-1.1777337 -0.50668699 2.7169001
-1.1376021 -0.50747639 2.7021251
-1.1251398 -0.51050842 2.7077501
-1.1083134 -0.5178591 2.7100832
-1.0906435 -0.51495981 2.7104168
-1.0705189 -0.51527244 2.7120626
-1.0578884 -0.51933998 2.7126667
-1.2065562 -0.48659748 2.7175002
-1.194945 -0.49588966 2.7114377
-1.1758916 -0.49421033 2.7173574
-1.1595443 -0.49466056 2.7161002
-1.1421323 -0.49802849 2.7058575
-1.1331648 -0.50354058 2.7127502
-1.0359209 -0.49063593 2.707
-1.2450051 -0.47462687 2.717
-1.229135 -0.47705272 2.7124321
-1.2152215 -0.47970369 2.7121787
-1.0506792 -0.46825513 2.7145002
-1.0379291 -0.4788132 2.7070835
-1.2852103 -0.45963725 2.7127004
-1.063448 -0.45082331 2.7167501
-1.0525154 -0.45496184 2.7131
-1.0384693 -0.45872575 2.7020626
-1.3172393 -0.43728727 2.7065001
-1.2896274 -0.44492427 2.7170002
-1.0545244 -0.44488332 2.7167501
-1.0436766 -0.44999358 2.71175
-1.361082 -0.41729203 2.7111876
-1.3413008 -0.41872075 2.7012501
-1.3221437 -0.42484692 2.7060683
-1.3035481 -0.42285502 2.7088439
-1.2928135 -0.43113065 2.7050002
-1.3553839 -0.4064042 2.7176251
-1.3401957 -0.40792936 2.7024286
-1.3221779 -0.40669581 2.7058847
-1.3071358 -0.40641937 2.7092502
-1.3598018 -0.38940644 2.7027502
-1.3413781 -0.39114645 2.7031074
-1.3237276 -0.38714951 2.7076609
-1.3104577 -0.3835991 2.7139378
-1.3207676 -0.36981478 2.7076786
-1.3063986 -0.36644447 2.7132189
-1.2937888 -0.36125764 2.7132502
-1.3182083 -0.34976086 2.7085001
-1.3054975 -0.34934655 2.7128887
-1.290719 -0.34936628 2.7130415
-1.3191521 -0.33258685 2.7116501
-1.3051363 -0.3314608 2.7121389
-1.2895098 -0.33073926 2.7131786
-1.6791997 -0.30772489 2.7120001
-1.3047886 -0.31951532 2.711417
-1.2865967 -0.31830749 2.7137501
-1.2765527 -0.30800858 2.7145002
-1.7226627 -0.29171208 2.7010002
-1.6987938 -0.29101795 2.71105
-1.6874778 -0.29601461 2.7133753
-1.269565 -0.29402518 2.7059503
-1.2499875 -0.29251882 2.7084582
-1.2379142 -0.29194668 2.7123334
-1.8091027 -0.27431804 2.7083571
-1.7953329 -0.27812812 2.7125003
-1.7721794 -0.27347007 2.7016501
-1.7556751 -0.27601588 2.7063127
-1.7404547 -0.28169096 2.70875
-1.6974831 -0.28190881 2.7146502
-1.6860552 -0.28251451 2.7166669
-1.2675955 -0.27846736 2.7042751
-1.2491505 -0.27746674 2.7113409
-1.2399741 -0.2840589 2.7125001
-1.8422474 -0.25391307 2.7072501
-1.8247007 -0.25855291 2.7076111
-1.8173591 -0.2655797 2.7055001
-1.7892847 -0.26003525 2.7093334
-1.7762655 -0.26183414 2.7075834
-1.2639922 -0.26351848 2.7045834
-1.2513133 -0.26498404 2.7145627
-1.8402176 -0.2451582 2.7086251
-1.8283764 -0.24599227 2.7113001
-1.7896438 -0.24850914 2.7128751
-1.5331343 -0.24881831 2.7162502
-1.521564 -0.24198526 2.7062502
-1.5094817 -0.21914406 2.7165
-1.4912449 -0.23004492 2.7050002
-1.5192099 -0.20526014 2.7161667
-1.5051918 -0.20708701 2.7141252
-1.5129198 -0.19506268 2.7120001
-1.8451433 -0.10627045 2.7158751
