# .PCD v0.7 - Point Cloud Data file format
VERSION 0.7
FIELDS x y z
SIZE 4 4 4
TYPE F F F
COUNT 1 1 1
WIDTH 1465
HEIGHT 1
VIEWPOINT 0 0 0 1 0 0 0
POINTS 1465
DATA ascii
0.08313559 0.10134675 1.8459376
0.099235766 0.099863842 1.8418106
0.11447982 0.10194055 1.8451958
0.1319185 0.10294696 1.8449287
0.15491946 0.10571065 1.8457502
0.16638745 0.10562582 1.8532501
0.19024621 0.10193513 1.8506428
0.20487042 0.10135822 1.8478612
0.22456557 0.10131256 1.8452916
0.23891634 0.10283379 1.8448751
0.26482195 0.10533015 1.8480625
0.27932873 0.1003537 1.8418336
0.29843628 0.10519122 1.845625
0.31821728 0.10509861 1.8440002
0.33354911 0.10080638 1.8446171
0.34855452 0.09392716 1.8468058
0.36938554 0.096453369 1.8438752
0.38902301 0.095956057 1.8424846
0.40380076 0.10237446 1.8404884
0.42635992 0.098855436 1.849844
0.44522569 0.099054657 1.8463335
0.45994604 0.097563699 1.8441391
0.47767872 0.094996445 1.8459617
0.49574828 0.097322181 1.8490002
0.51170218 0.098754048 1.8393555
0.52829564 0.096283592 1.8366834
0.55053163 0.098165959 1.8452834
0.56713313 0.097764805 1.8511499
0.58812016 0.10510573 1.8441252
0.6056506 0.10172637 1.8444875
0.62089276 0.099618278 1.8390237
0.6314187 0.092559129 1.84
0.65916979 0.09821067 1.8392999
0.67536539 0.10194149 1.8388795
0.69104534 0.10459909 1.8412503
0.71501666 0.10189652 1.8458575
0.72700024 0.097215846 1.8449286
0.74511909 0.096750177 1.8465834
0.76333153 0.10037363 1.8479502
-0.22294657 0.11199219 1.8390279
-0.2144189 0.1108001 1.8362501
-0.18271397 0.11112157 1.8417083
-0.17239141 0.11135476 1.8418931
-0.13211603 0.11050378 1.8386787
-0.094359979 0.10933663 1.8426501
-0.085221238 0.10913705 1.8427501
-0.0058103409 0.11368857 1.8432667
0.0071501439 0.11266434 1.8439889
0.026690625 0.11388033 1.8477727
0.04135444 0.10903333 1.8479502
0.10195924 0.11086044 1.8372501
0.1175689 0.11235195 1.841
0.12685131 0.11113155 1.8417501
0.15880585 0.11131617 1.8448571
0.17093772 0.11308278 1.8474048
0.18707675 0.11024103 1.8503182
0.21263666 0.11089061 1.8377501
0.24930057 0.11036199 1.8418126
0.25531825 0.11067708 1.8415716
0.30310076 0.11632755 1.8415195
0.31251448 0.114237 1.8421876
0.32876593 0.1081025 1.842625
0.4034521 0.11355511 1.8361002
0.49821767 0.11104603 1.8450683
0.50741726 0.11401353 1.8385834
0.60112005 0.11083027 1.83675
0.62410265 0.11082021 1.8365835
0.67665988 0.11347605 1.8375001
0.71428704 0.10960653 1.8420835
0.30199078 0.12789093 1.8390836
0.30825344 0.1279373 1.8397501
-0.25445968 0.30939135 1.84825
-0.7079255 0.33793882 1.8509998
-0.69653386 0.33865499 1.8512857
-0.59759265 0.34119806 1.8530835
-0.58486784 0.3410078 1.8520502
-0.50459182 0.34118271 1.853
-0.49442029 0.33903176 1.8497254
-0.48481694 0.34035417 1.8485001
-0.3839252 0.33998588 1.8465
-0.37615317 0.33993986 1.8462501
-0.34498775 0.33963287 1.853
-0.33065316 0.33686662 1.8499081
-0.31458029 0.33575338 1.8499289
-0.30171433 0.33802006 1.8511138
-0.26178619 0.33500636 1.8418335
0.89564043 0.32857722 1.8518333
0.91143894 0.33259264 1.8520178
0.92631912 0.33161944 1.8492168
-1.0128374 0.35660714 1.8462002
-0.99750054 0.35295337 1.8437408
-0.97966695 0.35719785 1.8450001
-0.96238971 0.35502461 1.8444028
-0.94583422 0.35750562 1.8492504
-0.92904353 0.35818228 1.8527499
-0.90813297 0.35481748 1.8491818
-0.89018798 0.35204461 1.8476667
-0.87532276 0.35597837 1.844021
-0.85450172 0.35312548 1.8479166
-0.83562964 0.35467321 1.849
-0.81808025 0.35425743 1.8517499
-0.80014706 0.35214579 1.8523788
-0.78352165 0.3526271 1.8509287
-0.76463044 0.35365525 1.8498055
-0.74712068 0.35249448 1.8473098
-0.72860396 0.35450578 1.8481627
-0.7114349 0.3519927 1.8461217
-0.69549924 0.35194835 1.8473665
-0.67228568 0.35593179 1.8462044
-0.65681511 0.35230184 1.8474228
-0.63984329 0.35331389 1.8457274
-0.61942363 0.35664713 1.8408439
-0.60131633 0.35190907 1.8413055
-0.58528382 0.35125157 1.8427328
-0.57418984 0.35393915 1.8488438
-0.5496732 0.35624292 1.843857
-0.52987432 0.35351112 1.8480239
-0.51377219 0.351924 1.8483984
-0.49473339 0.3505998 1.8441669
-0.47782496 0.34951267 1.844242
-0.45875338 0.34770671 1.8465344
-0.44054398 0.34857625 1.8419378
-0.42194188 0.34961718 1.8439568
-0.40605733 0.35258505 1.8459909
-0.38665417 0.35046569 1.8447778
-0.37006256 0.35203788 1.8423598
-0.35006261 0.35004774 1.8473709
-0.33263212 0.3518697 1.8431945
-0.31514749 0.35139909 1.8416249
-0.29841146 0.3491604 1.8449018
-0.27997422 0.34791678 1.8418036
-1.0113443 0.3632136 1.8389999
-0.99820822 0.36622027 1.8391669
-0.98129267 0.36558616 1.8432187
-0.96237016 0.36542568 1.8423959
-0.94464535 0.36572313 1.8438959
-0.92760545 0.36784342 1.8467999
-0.91357261 0.36439356 1.8449688
-0.86993927 0.36559439 1.8391619
-0.81747675 0.36629498 1.8493811
-0.80403429 0.36592293 1.8503079
-0.78423673 0.36178339 1.8474001
-0.76546949 0.36249146 1.843146
-0.74798006 0.36297941 1.8456253
-0.72114933 0.36267143 1.8362501
-0.71146607 0.36408344 1.8382168
-0.61654985 0.36264011 1.8383214
-0.60565245 0.36334935 1.8385715
-0.54385096 0.3625381 1.8460001
-0.53207594 0.36309394 1.8462085
-0.5183059 0.36524263 1.8432885
-0.41710275 0.36092174 1.8430002
-0.40526533 0.36136234 1.84525
-0.38449743 0.36171952 1.8418336
-0.37433299 0.36337814 1.8398334
-0.33213466 0.36248997 1.8384501
-0.31562927 0.36409792 1.83725
0.43916377 0.067353457 1.8665
0.4806188 0.069642097 1.8621073
0.48657033 0.06721814 1.8627501
0.69825357 0.070942193 1.8650833
0.70483875 0.070727132 1.8649
-0.16963965 0.087685928 1.8673126
-0.16178252 0.087659515 1.8667501
-0.12714922 0.087459944 1.8625001
-0.11634302 0.085965998 1.8639584
-0.10009466 0.085351788 1.8590001
-0.081855394 0.084216118 1.8596667
-0.062253986 0.080886096 1.8611363
-0.049368177 0.082282968 1.8661785
-0.021194553 0.087276019 1.8585835
-0.011892048 0.087495171 1.8632501
0.016220763 0.087894313 1.8717501
0.028680107 0.087729953 1.8682503
0.045826402 0.087636046 1.8662502
0.061493419 0.087724082 1.868125
0.098915659 0.087663434 1.8668336
0.11280157 0.087534286 1.8640834
0.18678129 0.086305752 1.87125
0.24944431 0.08527793 1.8659376
0.261693 0.083638027 1.8642502
0.27915341 0.080661774 1.8634918
0.29021814 0.07920137 1.8697501
0.32002798 0.086467147 1.8635417
0.33197325 0.084812365 1.8630716
0.34494928 0.087111674 1.8550835
0.3605721 0.087894313 1.8717501
0.38846686 0.081156701 1.8610001
0.40172085 0.079653963 1.8649038
0.42868796 0.086800247 1.8650626
0.4416298 0.080172829 1.8656691
0.45789984 0.082018264 1.8651526
0.47562745 0.079740174 1.8595784
0.49182039 0.078878418 1.8619376
0.51446801 0.082127668 1.8608594
0.53037655 0.083619691 1.8579862
0.55282706 0.080223203 1.870844
0.56732953 0.082390957 1.8698559
0.58298451 0.083940767 1.8665938
0.60640687 0.082488313 1.8658572
0.6189729 0.078320645 1.8674377
0.63956499 0.081374943 1.86
0.65298671 0.085675418 1.8575834
0.69675869 0.080939069 1.8660536
0.70545292 0.080913447 1.8654642
0.7479251 0.08725059 1.8580418
-0.22144078 0.093807042 1.8579445
-0.20772454 0.092469834 1.8588336
-0.18729265 0.09439791 1.8676786
-0.17083225 0.098245092 1.865815
-0.15522097 0.0987496 1.8610874
-0.13525245 0.097291395 1.8609546
-0.11602056 0.091953091 1.8588752
-0.10276941 0.091142312 1.8581874
-0.042790964 0.096726112 1.8684688
-0.0070451838 0.093392484 1.8634447
0.0097655812 0.09519621 1.866395
0.025962582 0.096936338 1.8650447
0.037802961 0.090235032 1.8555001
0.067421354 0.092712626 1.8679001
0.081020437 0.096073471 1.8655894
0.096786544 0.09178476 1.8633752
0.11782865 0.094291456 1.8601731
0.13626492 0.096504122 1.8638973
0.15229459 0.096829921 1.8672241
0.17293635 0.099782243 1.8687124
0.18776327 0.094575807 1.8691324
0.20996481 0.09688437 1.8586818
0.22383386 0.097700611 1.8573127
0.2454702 0.09797971 1.8642002
0.25997582 0.097554892 1.8605908
0.27813303 0.094315574 1.8595129
0.29734477 0.10101451 1.8634725
0.31604409 0.09884508 1.8611373
0.33252835 0.094712697 1.8568424
0.37042639 0.092318714 1.8662499
0.40931246 0.094738372 1.8656071
0.42313182 0.094765984 1.8632665
0.44196165 0.094964348 1.8642024
0.45626706 0.093022414 1.8604547
0.53010249 0.090307981 1.8570001
0.55727005 0.090940185 1.8700001
0.56814367 0.091976099 1.8656502
0.58559668 0.095713608 1.8614587
0.60179013 0.095877923 1.8614397
0.65902334 0.090312034 1.8570833
0.67490387 0.093467116 1.8580501
0.70115733 0.10143888 1.8617501
0.71120423 0.1010338 1.8621136
0.72804672 0.09404745 1.8618439
0.74661553 0.091593467 1.8578751
0.023942441 0.10933453 1.863625
0.30929905 0.10884319 1.8552501
-0.25847539 0.29989043 1.8660835
-0.40601262 0.32241639 1.8700002
-0.25837657 0.3114754 1.865375
0.89211357 0.31490475 1.8653654
0.91327471 0.32151249 1.8631366
0.9270339 0.31915224 1.8592001
0.93902725 0.31839603 1.8607502
-1.0286481 0.34075144 1.867625
-1.0168607 0.34046406 1.8660501
-1.0067929 0.34022692 1.8647501
-0.90004331 0.33957535 1.8697501
-0.88997269 0.33931202 1.8683002
-0.87865829 0.3391667 1.8675001
-0.83329707 0.3375735 1.8673335
-0.82301104 0.33742896 1.8643751
-0.79729235 0.33976573 1.865675
-0.78776568 0.33984652 1.8655418
-0.7427575 0.34028852 1.8693751
-0.72784585 0.33818975 1.8604252
-0.71226376 0.33597246 1.8585
-0.69136465 0.33612791 1.8614844
-0.67376399 0.33619928 1.866663
-0.65790188 0.33498922 1.8703481
-0.64065605 0.3388221 1.8696334
-0.6199255 0.33698681 1.8711705
-0.60528338 0.34068176 1.8672813
-0.58279967 0.3388944 1.86525
-0.56956708 0.33817726 1.8637998
-0.54917175 0.33977839 1.8622918
-0.52886462 0.34011161 1.8584445
-0.51285893 0.33752561 1.8634738
-0.49358559 0.33208579 1.8603662
-0.47676453 0.33517554 1.8690668
-0.46013346 0.33793485 1.8704836
-0.44991809 0.33971155 1.8705001
-0.42108589 0.3351773 1.8686197
-0.40397844 0.33337259 1.8684057
-0.3872433 0.33431977 1.8645699
-0.37070915 0.33756801 1.867309
-0.35226089 0.33822784 1.8613889
-0.33283737 0.33113381 1.864682
-0.31486022 0.32723469 1.8608088
-0.2960076 0.33307579 1.8626418
-0.27815318 0.33349419 1.8603384
-0.26531538 0.33128491 1.8623182
0.89829195 0.32558799 1.8702501
0.90862519 0.32682088 1.8663077
0.92753482 0.32779455 1.8547082
-1.0278957 0.34959778 1.864844
-1.0182983 0.34890199 1.8627025
-0.99767268 0.34759876 1.8593751
-0.98224038 0.35075551 1.8587407
-0.96359652 0.35244071 1.8606251
-0.94320887 0.34847841 1.8577242
-0.92791522 0.35221562 1.8629661
-0.90928721 0.34783769 1.8633807
-0.88964677 0.3484669 1.8667612
-0.87366074 0.35011578 1.8650385
-0.85703945 0.35070091 1.8673751
-0.83623344 0.34933963 1.8642622
-0.81911087 0.34490287 1.8605415
-0.80467594 0.3443203 1.8633001
-0.78258342 0.34689227 1.8670499
-0.7673654 0.34683809 1.8639584
-0.74370372 0.34656605 1.8601731
-0.73062468 0.34761319 1.8561913
-0.68864369 0.35009721 1.8609891
-0.67561388 0.34785831 1.862352
-0.65730035 0.34552372 1.8657955
-0.63757718 0.34914842 1.8629613
-0.62210655 0.3500126 1.8637601
-0.6083346 0.34700435 1.8551251
-0.57633746 0.34456101 1.8545001
-0.56640708 0.34897029 1.8578594
-0.54863286 0.34896597 1.8582584
-0.53322875 0.34607407 1.8565682
-0.51495224 0.34499064 1.8568335
-0.47663364 0.34224907 1.8587917
-0.45907399 0.34400639 1.8659286
-0.44073647 0.34436956 1.8612117
-0.42288446 0.34358725 1.8636429
-0.40579352 0.34642908 1.8618126
-0.36770719 0.34636706 1.8611249
-0.35722438 0.34407055 1.8602501
-0.28959405 0.3447468 1.8555001
-0.2774598 0.34354091 1.8573749
-0.267037 0.34256366 1.8605001
-0.98583919 0.36010399 1.8546667
-0.9274444 0.36031437 1.8557501
-0.54864597 0.3602173 1.85525
-0.17000014 0.069732383 1.8886502
-0.1588456 0.069689922 1.8875
-0.1192015 0.069582842 1.8846
-0.0041625523 0.068120278 1.8877501
0.0037271322 0.068066142 1.88625
0.11787493 0.068169266 1.8843335
0.1315866 0.068890907 1.880125
0.48257297 0.066180095 1.8775001
0.49564347 0.063805237 1.8802859
0.51100045 0.068428345 1.8853438
0.55612469 0.069486849 1.8820001
0.56588787 0.069526076 1.8830626
0.60809058 0.068160549 1.8801501
0.62066168 0.067962959 1.8794318
0.63523805 0.067957193 1.8832501
0.66098434 0.069260709 1.875875
0.67570496 0.069482237 1.881875
0.69381011 0.065148003 1.8792717
0.70865053 0.061966516 1.878706
-0.21981233 0.08504349 1.8779584
-0.20814359 0.085372344 1.876578
-0.18851031 0.08676292 1.88125
-0.17160633 0.079406038 1.8861617
-0.15368369 0.081877798 1.8849227
-0.13415956 0.081756227 1.8809456
-0.11692091 0.076998927 1.8733233
-0.09990146 0.078544632 1.877309
-0.081161179 0.080402635 1.8796002
-0.066243328 0.077402726 1.87555
-0.043355007 0.081814259 1.8759333
-0.024154857 0.085030593 1.8778126
-0.0078241257 0.080361068 1.8819898
0.0081894211 0.080025837 1.8762647
0.025821777 0.08292184 1.8748817
0.044563673 0.083508976 1.8787501
0.063339122 0.083374806 1.8828167
0.080261044 0.084080473 1.8819547
0.10099942 0.082429685 1.88045
0.11707455 0.079418339 1.8770922
0.13404131 0.080319621 1.8777014
0.15204395 0.082574204 1.8822117
0.16925932 0.084359504 1.8877504
0.18801111 0.084786169 1.8776345
0.20706834 0.082815163 1.8794808
0.2253015 0.080388553 1.8792987
0.24157476 0.08260753 1.8782084
0.26104465 0.077591807 1.8877085
0.2780405 0.072760411 1.8852501
0.31682459 0.083136596 1.8855536
0.33335295 0.078393556 1.8842167
0.35078987 0.082085364 1.8822917
0.36835176 0.080518484 1.8823751
0.38446087 0.083802193 1.8814168
0.41270462 0.082159474 1.88395
0.42439225 0.084622107 1.8792694
0.43356949 0.077114217 1.8760626
0.46231121 0.075099789 1.8806499
0.47480038 0.07743869 1.8840419
0.49797902 0.078950949 1.8763957
0.51041722 0.077672027 1.8828071
0.53031021 0.077265032 1.8797501
0.54854357 0.075695813 1.8798931
0.56860721 0.073213287 1.8833752
0.58068693 0.075277478 1.8851001
0.60610604 0.077434994 1.8803864
0.62575269 0.074067749 1.8784169
0.63950413 0.074023388 1.8772918
0.65847659 0.07763233 1.8749901
0.67487323 0.080212526 1.8752334
0.68965852 0.080222331 1.8754228
0.7162056 0.085328735 1.8743573
0.72668958 0.086544536 1.8764064
0.74726415 0.086702548 1.8798333
0.75920349 0.085057676 1.8782501
-0.20321043 0.091159023 1.8745002
-0.1895017 0.091355585 1.8785416
-0.17855713 0.091377862 1.8790001
-0.15058587 0.093666196 1.8828958
-0.13760787 0.093273401 1.8776252
-0.040173393 0.092697971 1.8739167
-0.032331672 0.092677355 1.8735001
-0.0025634067 0.091073915 1.87275
0.0021343082 0.091061756 1.8725001
0.07767114 0.093864478 1.8815939
0.12489342 0.092179209 1.8740001
0.13060458 0.092676513 1.8735001
0.16989471 0.09577994 1.8802116
0.20797122 0.091373004 1.8789002
0.22519238 0.092919342 1.8783959
0.23943909 0.092236929 1.8751669
0.29304558 0.094253391 1.8736668
0.31151801 0.094787128 1.8843333
0.41889682 0.093029834 1.8806251
0.67604142 0.091140792 1.874125
0.69390225 0.093243897 1.874396
0.71041924 0.094262332 1.8738616
0.72765905 0.0917807 1.8765417
0.74297881 0.091471076 1.8809167
-0.25967586 0.29344338 1.8747501
0.89730293 0.30337638 1.8780001
0.90927279 0.3022047 1.8790892
0.92758524 0.30093899 1.8796703
0.94384384 0.29907078 1.8806126
0.95405567 0.3002148 1.8877501
-0.99263674 0.3218922 1.8852501
-0.98797256 0.32191354 1.885375
-0.96554226 0.32156843 1.888643
-0.68496984 0.32103848 1.8802501
-0.68025285 0.32103848 1.8802501
-0.65659988 0.32254952 1.8891001
-0.63634384 0.31951812 1.8821459
-0.62480652 0.32110667 1.8822085
-0.60056394 0.32214832 1.8867501
-0.58337361 0.31997582 1.8809375
-0.57426572 0.31998438 1.8833127
-0.53013694 0.32249832 1.8888
-0.51147336 0.32261661 1.8825939
-0.49405017 0.32178536 1.8820001
-0.47549558 0.31987202 1.8799562
-0.46174416 0.32122493 1.8783127
-0.43549126 0.32022065 1.8893437
-0.42382303 0.32021737 1.8877918
-0.40256053 0.3203561 1.8876539
-0.39160731 0.3205508 1.8876945
-0.36605239 0.32108 1.8897501
-0.35148928 0.32076851 1.8879167
-0.26548222 0.31827611 1.8825625
0.89636868 0.30882254 1.8776876
0.91025835 0.31487212 1.877652
0.92708349 0.31198296 1.8767828
0.94219422 0.31035319 1.8744317
-1.0344402 0.33846974 1.881
-1.0163049 0.33972335 1.8855681
-0.99678808 0.33300468 1.882217
-0.98160511 0.33306357 1.8841511
-0.9637183 0.33382019 1.8864859
-0.94555396 0.33849081 1.8867943
-0.92636776 0.33712959 1.8863068
-0.90932131 0.33824119 1.8841459
-0.89262456 0.33632559 1.885639
-0.87204677 0.33512861 1.8781502
-0.85532224 0.33306482 1.8771467
-0.84043217 0.33393243 1.8754221
-0.81702369 0.33372653 1.8839657
-0.80152619 0.33194971 1.887279
-0.78520608 0.33582905 1.8865327
-0.76167113 0.33599892 1.8860894
-0.74876124 0.33389544 1.8851664
-0.72773856 0.33505267 1.8824168
-0.7113663 0.33091483 1.8809081
-0.69244146 0.32871181 1.8791876
-0.6770575 0.32930604 1.8767943
-0.65676266 0.32763544 1.8880626
-0.63888603 0.33052602 1.8746428
-0.62157464 0.32829416 1.8800911
-0.60190839 0.33222502 1.8771919
-0.58619565 0.33049133 1.8797234
-0.56860757 0.33329356 1.8806566
-0.54765892 0.33621293 1.8805158
-0.53138781 0.33247498 1.8830146
-0.51455283 0.32878545 1.8789233
-0.49362653 0.32618314 1.8809
-0.47617814 0.32646862 1.8753215
-0.45691866 0.3293626 1.8747976
-0.4410966 0.33294901 1.8788749
-0.4274686 0.32810855 1.8831137
-0.38532594 0.32699695 1.8783957
-0.36832261 0.33063108 1.8826301
-0.35100535 0.32997689 1.8788173
-0.33762249 0.32842314 1.877525
-0.31564608 0.32436326 1.8812917
-0.29739666 0.32663912 1.88535
-0.27802643 0.32756418 1.8867857
-0.26979995 0.32724184 1.8797501
0.89825851 0.33043012 1.8800001
0.90297496 0.33200252 1.8800001
-1.0095711 0.34275842 1.8786252
-0.99805671 0.34415057 1.87765
-0.97991955 0.34662017 1.880825
-0.96409482 0.34693006 1.8757292
-0.94056439 0.34441286 1.8743335
-0.92971277 0.34554645 1.8738751
-0.90996981 0.34252274 1.8773335
-0.86870444 0.34413746 1.8763573
-0.85579139 0.34754401 1.8741184
-0.84499604 0.34477314 1.8725001
-0.81589192 0.34257141 1.8776001
-0.78101015 0.34468478 1.8805625
-0.76630867 0.34443504 1.8792002
-0.75281185 0.3448652 1.8730001
-0.44153395 0.34205142 1.8747501
0.51838398 0.033694528 1.9052501
0.5231638 0.033694528 1.9052501
0.043642044 0.051276919 1.90725
0.51464957 0.044689417 1.8979739
0.52450752 0.046129547 1.9055001
0.69438392 0.049455982 1.8985834
0.70948344 0.049769219 1.8954376
0.72757816 0.051256757 1.9065002
0.74916375 0.049033165 1.9058846
-0.18311551 0.067829579 1.9019376
-0.17234819 0.06599348 1.9051591
-0.12898117 0.066870116 1.8970834
-0.11868151 0.065992169 1.8978931
-0.09666609 0.068857498 1.901893
-0.08084105 0.067089863 1.8980733
-0.038784135 0.067530811 1.8979
-0.02638006 0.065239258 1.896
-0.010977594 0.06502606 1.8963748
0.010890469 0.066101305 1.8979378
0.028372046 0.063440308 1.8960086
0.044852637 0.062472217 1.8999571
0.059222177 0.066842109 1.9038752
0.07871332 0.070402972 1.9068125
0.11680511 0.065515727 1.903875
0.13626897 0.066731445 1.8932502
0.1519558 0.068972342 1.900375
0.17227536 0.063951023 1.9011391
0.18955903 0.062176235 1.8990974
0.20512846 0.063735187 1.8982978
0.22405186 0.068756156 1.9014546
0.26060259 0.070432976 1.9076252
0.28187421 0.067926958 1.8969722
0.29433161 0.066017345 1.8987858
0.33597615 0.070183754 1.9008751
0.35230595 0.067095101 1.8978437
0.36221582 0.068445042 1.8967501
0.43172121 0.068399936 1.8955001
0.43961233 0.066014774 1.8953438
0.46031192 0.06714391 1.8985357
0.47076374 0.066270143 1.9027501
0.49149773 0.059021551 1.8998543
0.51379853 0.055435974 1.9040002
0.53337032 0.068817481 1.8962189
0.54873276 0.067502603 1.9013078
0.56911308 0.062754191 1.8990921
0.5838176 0.061639335 1.8977499
0.60398948 0.069310613 1.9017859
0.62394643 0.062418651 1.9065001
0.63978672 0.062716015 1.9043654
0.65557963 0.06863381 1.8971111
0.67556822 0.062603757 1.901772
0.69011313 0.059140984 1.8974998
0.71005523 0.054952465 1.8925714
0.73098457 0.062697642 1.9045327
0.74685544 0.06197992 1.9053516
-0.21970189 0.078094192 1.89235
-0.20720899 0.077648714 1.8959559
-0.18994281 0.078979142 1.8940119
-0.14643142 0.077696279 1.8902501
-0.13891244 0.074740529 1.8955002
-0.095549114 0.074602969 1.8977501
-0.080976635 0.074587174 1.89525
-0.062819228 0.073148288 1.8953001
-0.042613093 0.075376064 1.8934094
-0.027513651 0.078432195 1.8912499
-0.014188173 0.074052945 1.8914167
0.029052209 0.075502478 1.8918753
0.04496906 0.076331839 1.8956667
0.061758272 0.076120868 1.9003284
0.080863871 0.07590472 1.8995227
0.098776504 0.078799374 1.8940001
0.10870505 0.073387571 1.9015001
0.15649728 0.076015279 1.8977188
0.17220144 0.076520249 1.9003123
0.18913844 0.076805316 1.899079
0.20685625 0.07482022 1.8974998
0.26039296 0.073564462 1.9060836
0.273348 0.073194601 1.8965001
0.29814342 0.08005286 1.8961252
0.3165023 0.0788946 1.8965002
0.33163014 0.073107757 1.8942503
0.35339317 0.076904774 1.895172
0.37254298 0.074212767 1.8955002
0.38596889 0.077003613 1.8954467
0.40292495 0.073478863 1.892143
0.42382064 0.078149289 1.895237
0.4344039 0.074656218 1.8933752
0.46677795 0.073184952 1.8962501
0.47122258 0.07471998 1.8950001
0.53352177 0.07392282 1.8919287
0.54759681 0.074052878 1.8952857
0.58930576 0.074825153 1.8976251
0.60357291 0.079405218 1.9003295
0.61290658 0.089080006 1.8970001
0.73158979 0.077884011 1.8932173
0.74632651 0.079299301 1.8907827
0.75716615 0.080091625 1.8908125
0.30126497 0.095725603 1.8925
0.30723059 0.095086902 1.8902501
-0.2581687 0.25107962 1.8982501
0.9352023 0.2873641 1.90725
0.94481933 0.28574631 1.9059168
0.95409113 0.285694 1.9067501
-0.43991256 0.30560234 1.9016252
-0.27041531 0.30315691 1.9062501
-0.26588371 0.29951748 1.8966669
0.89592481 0.29900715 1.8947273
0.90959454 0.30010501 1.8985002
0.92802382 0.29539734 1.9032679
0.9446817 0.2928783 1.9040591
0.95724052 0.29287973 1.8982501
-1.0491701 0.31794122 1.9031502
-1.0110005 0.31905898 1.9060001
-1.0000337 0.31937748 1.9008126
-0.97901976 0.31739807 1.9032189
-0.96064693 0.31482086 1.8965316
-0.94633543 0.32161289 1.8987342
-0.93253583 0.32349545 1.8993126
-0.90760845 0.32088643 1.8990735
-0.89919132 0.32094711 1.9077501
-0.81341106 0.32334352 1.8937501
-0.80027574 0.32115886 1.8938076
-0.7840699 0.32029235 1.8979688
-0.76392055 0.31975159 1.9006459
-0.74848861 0.32142884 1.9058752
-0.72251302 0.32218438 1.8962501
-0.70973861 0.31991154 1.8991579
-0.69345641 0.31748974 1.8997302
-0.67596483 0.32214156 1.899146
-0.65527129 0.31760609 1.9005418
-0.64000756 0.31460965 1.9016248
-0.61988139 0.31871417 1.8936366
-0.60464704 0.32101384 1.8960359
-0.58456695 0.31562388 1.8911501
-0.56606936 0.3179003 1.8927811
-0.54881728 0.31702581 1.8976917
-0.53230709 0.31495053 1.898279
-0.51239622 0.31694132 1.896225
-0.49690825 0.31632322 1.8969169
-0.47886214 0.3156763 1.8984445
-0.45852283 0.3189075 1.8996788
-0.44152692 0.31435543 1.8978217
-0.42255124 0.31707564 1.8979502
-0.40443397 0.3160314 1.8993
-0.38565004 0.31690049 1.8963056
-0.37087822 0.31722 1.8950665
-0.35089272 0.3142508 1.9029673
-0.33556834 0.32008308 1.9045334
-0.31209046 0.32018858 1.8965536
-0.29677367 0.3186315 1.8971548
-0.27842194 0.31709191 1.8956431
-0.26739138 0.31005588 1.8938501
0.89579052 0.30941203 1.8925
-1.0462936 0.32836631 1.89925
-1.0346789 0.33294189 1.8991033
-1.0181932 0.33201382 1.9007647
-1.0007057 0.32665145 1.8945833
-0.98503065 0.32458138 1.901
-0.9562574 0.32766205 1.8912501
-0.9469344 0.33081037 1.8956999
-0.92573023 0.32950625 1.8959856
-0.90810424 0.3297455 1.8950752
-0.89274031 0.33010986 1.8995907
-0.87461537 0.32842416 1.8969643
-0.85711175 0.3274768 1.8993502
-0.8378818 0.3315472 1.8953751
-0.82403451 0.32784122 1.8978001
-0.79304415 0.32595092 1.8905001
-0.78072584 0.32923591 1.8964288
-0.76715147 0.33051708 1.8961364
-0.74437749 0.32960185 1.9039341
-0.72996348 0.33025321 1.8970627
-0.71301752 0.32695094 1.8963001
-0.67376971 0.32637334 1.8929501
-0.61265802 0.3258647 1.8900001
-0.60949701 0.3258647 1.8900001
-0.56393373 0.3303535 1.8924286
-0.551355 0.32949567 1.8926966
-0.45375597 0.32435372 1.8996668
-0.38032526 0.3258647 1.8900001
-0.3755838 0.3258647 1.8900001
-0.33287281 0.32578814 1.90065
-0.32108876 0.3251363 1.9042501
-0.29402527 0.32496715 1.8940001
-0.28243712 0.32598323 1.8906875
0.40960598 0.035526499 1.9181252
0.41759896 0.035524186 1.9180001
0.5861395 0.034021068 1.9237143
0.59759182 0.033849269 1.914
-0.079703756 0.050816678 1.9200002
-0.064199835 0.050071381 1.9153889
-0.053873096 0.051491998 1.9152501
0.034204878 0.051481918 1.914875
0.038918406 0.051357575 1.9102501
0.17689715 0.049929198 1.9167501
0.18811874 0.049929202 1.91675
0.20760573 0.049989983 1.9190836
0.27630579 0.050555535 1.9253438
0.32030231 0.050046422 1.9212501
0.3311376 0.049066462 1.9188572
0.40542164 0.045734856 1.9191196
0.41935644 0.045167547 1.9186999
0.45852235 0.050119016 1.9184544
0.47728112 0.046316367 1.9166665
0.48929963 0.047416959 1.9170357
0.56939465 0.046669096 1.9178928
0.58376104 0.04455255 1.9110086
0.60107321 0.045079768 1.9148753
0.61730468 0.050158754 1.9255625
0.69203836 0.045821205 1.9125627
0.70935458 0.045037422 1.9132501
0.73476422 0.048410971 1.9203001
0.74507844 0.044943634 1.9200002
-0.22009875 0.064731039 1.9142678
-0.20832677 0.066203125 1.913486
-0.19192579 0.066869445 1.911
-0.16342001 0.066166967 1.9227501
-0.15122125 0.066419087 1.9234407
-0.13780938 0.065635279 1.9202499
-0.11175745 0.066043384 1.9192084
-0.098596357 0.062240951 1.9194609
-0.080583841 0.058168739 1.9130265
-0.063068174 0.063073263 1.9153872
-0.047873057 0.06505914 1.9200455
-0.0042093331 0.060911827 1.90925
0.01129606 0.060114127 1.9178333
0.025160274 0.055831548 1.9175001
0.065661907 0.063712835 1.9136043
0.081156835 0.061656918 1.9211153
0.098674431 0.064085059 1.918
0.11607265 0.059182458 1.9155
0.1340719 0.061313584 1.9129544
0.15057735 0.06384103 1.9130625
0.16836748 0.059390564 1.9219002
0.21251422 0.058812089 1.9103334
0.22244994 0.061233398 1.9110626
0.23891115 0.067361742 1.922375
0.26418296 0.062286377 1.9111321
0.27837455 0.061120816 1.9162105
0.2956194 0.059139136 1.9209169
0.31572652 0.064764246 1.9220718
0.33205986 0.06172701 1.9160783
0.34801453 0.062852129 1.9199002
0.36207461 0.061294671 1.9212501
0.39483517 0.069157735 1.9165001
0.40744233 0.064413831 1.9187826
0.42268351 0.063090287 1.9149215
0.44124573 0.059680555 1.9155002
0.45962334 0.058167797 1.9130263
0.47441569 0.058470011 1.912975
0.51896071 0.057839036 1.9132501
0.53139174 0.060197469 1.9119376
0.55357391 0.060508218 1.9183928
0.56444305 0.057774898 1.9112504
0.60232204 0.06174539 1.909359
0.61872691 0.058260407 1.9199826
0.63986462 0.057015937 1.9179251
0.65799153 0.060465552 1.9129893
0.67547888 0.056140237 1.9176787
0.73530108 0.05454582 1.9100001
0.73849547 0.05454582 1.9100001
-0.22346857 0.07546097 1.9137501
-0.20400457 0.073767088 1.9113334
-0.19768196 0.073792815 1.9120001
-0.14975478 0.073812105 1.9125
0.087239049 0.074062981 1.9190001
0.097588994 0.075406604 1.916068
0.30381298 0.088023797 1.9085001
0.31281072 0.081079572 1.9146875
0.3980405 0.073966488 1.9165001
0.42681408 0.073677026 1.909
0.30381298 0.092812486 1.9085001
0.30856043 0.092800327 1.9082501
0.87834948 0.26641697 1.9126501
0.88432842 0.26547328 1.91625
-0.27314606 0.28528225 1.9255002
-0.26741052 0.28112292 1.921875
0.89445841 0.27957565 1.9239
0.90471166 0.2844868 1.9247859
0.94437987 0.28314459 1.9137501
0.96310341 0.28449473 1.9156072
0.9730584 0.28042847 1.92535
-1.0476186 0.30574119 1.9225001
-1.0374857 0.30559808 1.9216001
-0.97861385 0.30477706 1.9164376
-0.97016197 0.30514482 1.91875
-0.77941287 0.30176654 1.9245001
-0.76416212 0.30191162 1.9200715
-0.75232959 0.30530387 1.9197501
-0.70476615 0.30303675 1.9257501
-0.70154542 0.30303675 1.9257501
-0.59792393 0.3043634 1.9239584
-0.5886817 0.30456549 1.9232002
-0.54881704 0.30460808 1.915375
-0.53221637 0.30428338 1.9133334
-0.51525992 0.30432996 1.9186876
-0.49013841 0.30436972 1.924
-0.47736436 0.30340335 1.9179001
-0.45956481 0.30330613 1.9172916
-0.44190463 0.30328485 1.9171503
-0.42369878 0.30288073 1.9145833
-0.40451148 0.29989064 1.9205202
-0.3891533 0.29990044 1.9244208
-0.36239311 0.30128789 1.9248751
-0.35248172 0.30157509 1.9218553
-0.33027196 0.29954648 1.9206252
-0.31589544 0.30030707 1.9215
-0.29693541 0.30262697 1.9231529
-0.27816436 0.29902437 1.920716
-0.26723734 0.29115957 1.9154501
0.89687312 0.28992549 1.9242501
0.91046393 0.29507288 1.9233395
0.9267745 0.29689464 1.9235249
0.93810105 0.2913453 1.9230001
0.96567965 0.29108766 1.91075
0.97275513 0.29000083 1.9247501
-1.0515609 0.31438449 1.9189783
-1.0342727 0.31469721 1.9154856
-1.019995 0.31669387 1.91425
-0.99851578 0.31701213 1.9203464
-0.98195112 0.30992931 1.9171429
-0.96200216 0.31125635 1.916875
-0.94474161 0.31481054 1.9130385
-0.92800403 0.31795356 1.9133523
-0.90851659 0.31250483 1.9158475
-0.89187914 0.31645918 1.912842
-0.87647891 0.3213065 1.9162501
-0.85385323 0.31572253 1.9122169
-0.83720946 0.31843275 1.9122608
-0.81913048 0.31662479 1.916664
-0.80071664 0.31355634 1.9202957
-0.7842927 0.31244361 1.9212873
-0.76470941 0.31247872 1.9145374
-0.74589318 0.31220302 1.9114825
-0.73041892 0.31618604 1.915203
-0.71117854 0.31281018 1.9199166
-0.69307297 0.31048015 1.9166923
-0.67640734 0.31639856 1.9116095
-0.65841275 0.31254959 1.9116944
-0.63641918 0.31318367 1.9139378
-0.61973792 0.31623122 1.9156346
-0.60369867 0.31401688 1.917942
-0.58633792 0.3119871 1.9168464
-0.56719124 0.31322637 1.9125835
-0.55013311 0.3082945 1.9144001
-0.52989775 0.30961072 1.9138865
-0.51476473 0.31027076 1.9164287
-0.49497169 0.31045654 1.9198669
-0.47624478 0.31050783 1.9110156
-0.45911366 0.31141382 1.9112737
-0.43494266 0.30931306 1.9147501
-0.4229396 0.31192055 1.9137841
-0.40674952 0.31052038 1.9123217
-0.38603747 0.30904499 1.9131249
-0.36998492 0.31033018 1.9183751
-0.35135013 0.30741429 1.9129002
-0.33280531 0.31251529 1.9143261
-0.31603885 0.31272367 1.9164566
-0.29669383 0.31076828 1.9151094
-0.28264174 0.30990332 1.9134375
-1.0346373 0.32618636 1.9104
-1.0221663 0.32577658 1.9080001
-0.92643344 0.32577658 1.9080001
-0.88593268 0.32563391 1.9118751
-0.87349558 0.32546088 1.913675
-0.85401714 0.32697573 1.9096786
-0.83868527 0.32757011 1.9099998
-0.7335642 0.32665995 1.9085
0.25016624 0.035894617 1.9380001
0.26065415 0.034405224 1.9371139
0.27943459 0.035906654 1.9386501
0.40866756 0.033127956 1.9386786
0.42251015 0.03178243 1.9343752
0.43863147 0.03291443 1.939
0.45415488 0.035877634 1.9370834
0.48297375 0.035973333 1.9422501
0.48953354 0.035977963 1.9425001
0.53408563 0.034189709 1.9332501
0.55161536 0.032749694 1.9437501
0.56136805 0.032749694 1.9437501
0.58623946 0.02936017 1.9346501
0.60515141 0.031224892 1.9299501
0.61348742 0.034110125 1.92875
0.69934678 0.035825159 1.9342501
0.70862079 0.035857573 1.9360002
0.7223295 0.035922397 1.9395001
-0.22060996 0.050293885 1.9307501
-0.20992862 0.050987046 1.9365834
-0.18753286 0.049371883 1.9326169
-0.17100248 0.04880584 1.9358335
-0.15329838 0.048836723 1.9370418
-0.1366106 0.05007147 1.9347252
-0.11711501 0.05079098 1.9429166
-0.097681992 0.051231664 1.9400717
-0.079263747 0.045561746 1.9355278
-0.061540216 0.044584889 1.933286
-0.050194871 0.051028784 1.9382501
0.030305563 0.048866123 1.9382917
0.044085484 0.048062146 1.9385209
0.062251318 0.052170854 1.9405001
0.082118303 0.04622389 1.9397609
0.096264638 0.047219902 1.9411031
0.11812855 0.046402693 1.939932
0.13501595 0.0459079 1.9407672
0.1521025 0.049561094 1.9400501
0.17140947 0.046976719 1.9313823
0.1871302 0.044675257 1.9372858
0.20727369 0.04460917 1.9410555
0.2199042 0.048858617 1.9379168
0.25018772 0.042382151 1.9381667
0.25963181 0.044923496 1.9370836
0.27921465 0.043032687 1.933103
0.29347846 0.048392061 1.939173
0.31784117 0.045563471 1.935614
0.33500549 0.041535296 1.9365624
0.35166004 0.045280699 1.9331466
0.36626378 0.046786182 1.9326169
0.40109682 0.042357914 1.9374502
0.43068606 0.04551544 1.9335501
0.44048381 0.04552523 1.9339699
0.4570325 0.043516506 1.9355522
0.47541273 0.040217228 1.9379584
0.4908019 0.040016796 1.9283334
0.53647047 0.045945384 1.9345627
0.5462184 0.043337487 1.9384855
0.56440032 0.042950731 1.9430002
0.62305015 0.045928329 1.9283959
0.63679928 0.048680708 1.9309773
0.65788257 0.048140872 1.9364871
0.67410779 0.047772318 1.937639
0.68940097 0.048245218 1.9390501
0.71235836 0.040681303 1.9344376
0.72851801 0.042059258 1.9419377
0.74361783 0.043190029 1.9379376
-0.22303182 0.055945817 1.9307501
-0.20647913 0.057987202 1.9325167
-0.18835501 0.058379486 1.9311388
-0.17085829 0.058471315 1.9341835
-0.15411636 0.057591833 1.9356967
-0.13423347 0.057558045 1.9307503
-0.11721924 0.05876739 1.937809
-0.10521801 0.058016568 1.9406
-0.055836767 0.064726703 1.9277501
-0.045637425 0.059408568 1.9338826
-0.026827415 0.056667518 1.9278336
-0.0090820463 0.056653302 1.9273503
0.0083384803 0.059015065 1.9308001
0.022131151 0.056258634 1.9322501
0.052130852 0.055009887 1.9262501
0.064451635 0.057637691 1.9334584
0.097946152 0.055412561 1.9403502
0.1374802 0.056801319 1.9385556
0.1555327 0.058885165 1.9302224
0.16735211 0.055831596 1.9268125
0.22959325 0.058463484 1.934
0.24405135 0.061413758 1.9377189
0.25492945 0.060184851 1.9372501
0.29722741 0.055897016 1.9384168
0.31239334 0.057965834 1.9352916
0.35349914 0.056608755 1.9319445
0.36716297 0.05804836 1.9320556
0.40171036 0.060825288 1.929
0.44120064 0.058106743 1.9319546
0.45025197 0.056856118 1.9342501
0.53306925 0.063134275 1.9354286
0.54517871 0.061114199 1.9359001
0.55938262 0.055473957 1.9425001
0.62904507 0.055031303 1.927
0.63576579 0.055055108 1.9278334
0.67102909 0.055038441 1.92725
-0.26255482 0.24888682 1.9305001
-0.26255482 0.25211608 1.9305001
0.89103794 0.26182219 1.9340357
0.94654632 0.2696259 1.9403126
-0.59788704 0.28495985 1.9342504
-0.59021825 0.28354475 1.9356251
-0.53414577 0.28471667 1.9436252
-0.48704252 0.28636068 1.9437501
-0.47836155 0.28602922 1.9415002
-0.38077462 0.28427625 1.9406251
-0.37079546 0.28568906 1.9345179
-0.32604188 0.28648052 1.9336251
-0.31687236 0.28616276 1.9369376
-0.29647812 0.28598621 1.9412084
-0.27799961 0.28328645 1.9389548
-0.26919857 0.27331984 1.9435
0.91432971 0.28163716 1.9373752
0.92857397 0.28286663 1.9368825
0.94428372 0.27809718 1.9330162
0.9625138 0.27764913 1.9271671
-1.0509024 0.30582005 1.9434376
-1.0426756 0.30579054 1.9432501
-0.9915303 0.30405959 1.9322501
-0.98221552 0.30417761 1.9330002
-0.90315586 0.30586925 1.9437501
-0.89448261 0.30568236 1.9425627
-0.86848193 0.29968911 1.9374752
-0.8553611 0.29945207 1.9333452
-0.83745807 0.30118668 1.9332658
-0.81819761 0.30129048 1.9330394
-0.79972738 0.3005656 1.9392915
-0.78490573 0.29648221 1.9348835
-0.76626444 0.30000314 1.9373751
-0.72599417 0.2995652 1.9321347
-0.71259946 0.29835579 1.9315116
-0.69089592 0.2991114 1.9341547
-0.67468596 0.29764199 1.9348394
-0.65711164 0.29856396 1.9398831
-0.64014494 0.29879954 1.9409038
-0.61982679 0.29840514 1.9396251
-0.60369325 0.29616243 1.929969
-0.58539689 0.29670396 1.9345075
-0.56629241 0.30192384 1.9408038
-0.54745358 0.29730213 1.9320898
-0.53099787 0.29567561 1.9312952
-0.51569688 0.30003262 1.93575
-0.49227732 0.2991713 1.9361999
-0.4772009 0.29551467 1.9368217
-0.45936653 0.30017975 1.9409231
-0.44002247 0.29996234 1.9371002
-0.4219338 0.29838511 1.932146
-0.40533876 0.29151553 1.9262501
-0.38661915 0.29265592 1.9362501
-0.37011707 0.29627335 1.9287201
-0.34872049 0.29686791 1.9338751
-0.33589646 0.29494095 1.9333
-0.312489 0.29180187 1.9338669
-0.29649851 0.29355973 1.9390434
-0.28266445 0.29214072 1.9318336
0.91463947 0.2895501 1.9289168
0.92815238 0.29087815 1.9332656
0.938806 0.29045284 1.9277501
-1.0277846 0.30960727 1.936625
-1.0170313 0.31146854 1.9331254
-0.99883628 0.31061909 1.9328336
-0.97276932 0.30910769 1.9335001
-0.96289396 0.30905172 1.9331503
-0.94674039 0.30932552 1.932344
-0.92791814 0.31122294 1.9315834
-0.90965348 0.30857065 1.9402918
-0.88805908 0.31281579 1.9331311
-0.87441123 0.31298968 1.9327766
-0.8518433 0.30879131 1.9281667
-0.83828634 0.30961475 1.9306166
-0.81803912 0.30787319 1.9277999
-0.80416679 0.30731824 1.9324169
-0.74021435 0.30693394 1.9300001
-0.72772312 0.30968639 1.9303957
-0.7132588 0.30805826 1.9269377
-0.69033861 0.30828008 1.9294447
-0.67614168 0.31038526 1.9313906
-0.65799862 0.30935284 1.9350418
-0.63874823 0.31055775 1.9365166
-0.62324786 0.31043398 1.9335456
-0.60983229 0.30790865 1.9260001
-0.58057523 0.31004748 1.9318126
-0.56924027 0.31019101 1.9332886
-0.50547117 0.30649659 1.9272501
-0.500669 0.30651647 1.9273751
-0.054892752 0.031248076 1.9515001
-0.044764072 0.028245775 1.9518027
-0.03392737 0.028697774 1.9524645
0.066758618 0.032095265 1.9535625
0.080451481 0.031208081 1.9490209
0.098017603 0.031500798 1.9560558
0.11048076 0.033044543 1.9612501
0.14000215 0.033044543 1.9612501
0.148228 0.033050161 1.9615835
0.18948211 0.031472944 1.9564773
0.20418388 0.032816034 1.9476876
0.24632275 0.03300748 1.9590502
0.25850892 0.029624229 1.95205
0.27319387 0.032888696 1.9520001
0.29985908 0.028673522 1.9569066
0.31352761 0.028860498 1.9526179
0.33312345 0.033003826 1.9588336
0.34487984 0.033031907 1.9605001
0.37493151 0.029287633 1.9569063
0.38625476 0.027241142 1.9596903
0.40843186 0.02920568 1.9552858
0.42274317 0.026421037 1.9566501
0.44472218 0.030192768 1.9469502
0.45691061 0.031205377 1.9488335
0.49627051 0.032960299 1.9562501
0.55547953 0.03058601 1.9440001
0.55981457 0.029502064 1.9440001
0.59184146 0.026300861 1.9477501
0.60300946 0.026290733 1.9470001
0.62321883 0.027833104 1.9491
0.63943219 0.028588573 1.94885
0.65531188 0.028407427 1.9550771
0.67507207 0.032920707 1.9539001
0.69334459 0.031392515 1.9512957
0.70872277 0.031453989 1.949893
0.72400546 0.032753903 1.9440001
-0.22074473 0.045164917 1.9533751
-0.2060311 0.043232698 1.9568295
-0.18948735 0.040211771 1.9535294
-0.17030486 0.040706065 1.953558
-0.15362795 0.039730314 1.9560003
-0.13012791 0.046199366 1.9491501
-0.11887064 0.043620534 1.9544774
-0.096655361 0.045963891 1.9526945
-0.082382247 0.039625026 1.951143
-0.063110404 0.037806287 1.953146
-0.0445062 0.043530032 1.9519819
-0.029462082 0.045210864 1.956676
-0.0064043468 0.047601443 1.9533037
0.0077912351 0.045913141 1.9510171
0.025401453 0.045484297 1.9512168
0.046688899 0.04389713 1.9516876
0.063344225 0.044293307 1.9510002
0.077216499 0.039373972 1.949667
0.10153902 0.041136991 1.9558392
0.11055509 0.04138612 1.9593334
0.14123581 0.037307736 1.9557501
0.15376468 0.043058898 1.9533193
0.17229053 0.039386787 1.9504093
0.1903003 0.038835593 1.9479423
0.20710284 0.038676791 1.9475335
0.22638857 0.045709476 1.949971
0.24399878 0.045320131 1.9578834
0.29918095 0.040921912 1.9505148
0.31209227 0.042898856 1.9489347
0.33279625 0.036728363 1.9536668
0.35099584 0.036265969 1.95805
0.3722429 0.040663563 1.9519231
0.38553816 0.041952468 1.9563125
0.40266389 0.036200222 1.9545001
0.46544483 0.037256632 1.9527501
0.4782145 0.036228001 1.956
0.4995423 0.037868798 1.9562501
0.5550167 0.047306847 1.9500002
0.56215054 0.048845004 1.9535313
0.62449431 0.038854897 1.9441876
0.64065391 0.039775461 1.9442106
0.65513337 0.040115044 1.94625
0.67507207 0.036189109 1.9539001
0.69324762 0.040910639 1.9487393
0.72888237 0.036005747 1.9440001
0.74912524 0.039267264 1.9445001
0.75863153 0.036028896 1.94525
-0.12621047 0.055516794 1.9440001
0.0077492134 0.056210499 1.9455001
0.23010281 0.055588186 1.9465001
0.24379987 0.057060737 1.9551562
0.2527802 0.055923741 1.95825
0.31000826 0.055614367 1.9474168
0.5527879 0.055627458 1.947875
-0.2667709 0.24960232 1.9615
0.9812476 0.25114298 1.9480001
-0.27610812 0.26485407 1.9602501
-0.26976994 0.26575422 1.9476252
0.89617419 0.25802377 1.9507501
0.90922534 0.26423052 1.9520962
0.92752045 0.26278281 1.9531403
0.94538301 0.26261717 1.949402
0.96294957 0.26397383 1.9505209
0.97933882 0.2619094 1.9481001
-0.93968922 0.27984783 1.9594423
-0.92892182 0.27959383 1.9596248
-0.86936754 0.28701138 1.9481667
-0.86225033 0.28735512 1.9505001
-0.81600189 0.28684059 1.9514501
-0.8004213 0.28536355 1.9490684
-0.78959131 0.28762522 1.9523335
-0.74168247 0.28461313 1.9586
-0.72818023 0.28180358 1.95366
-0.71837282 0.28296667 1.9540001
-0.65691817 0.28324306 1.9559
-0.64174378 0.28643551 1.953786
-0.61960888 0.28607917 1.9507002
-0.60258889 0.28325009 1.9537001
-0.58648646 0.28546965 1.9549724
-0.56577682 0.28511122 1.9612499
-0.55074424 0.28204244 1.9605539
-0.52952605 0.28381735 1.9553751
-0.52101529 0.28569457 1.9615
-0.49055049 0.28548849 1.9545
-0.47735387 0.28509012 1.95735
-0.43947554 0.28616518 1.9522777
-0.42234439 0.28519979 1.954911
-0.40445381 0.28360292 1.9531056
-0.38716811 0.28006795 1.9474748
-0.37282881 0.27989915 1.9490558
-0.33026296 0.28550339 1.949
-0.31318831 0.2820541 1.9557858
-0.29664275 0.27888218 1.9558045
-0.28226876 0.2767739 1.9577361
-0.2696141 0.27048573 1.9465001
0.91162443 0.27620387 1.9523959
0.9272818 0.2751146 1.9510001
0.93862712 0.27257031 1.94745
0.96400231 0.27166894 1.9446112
0.97823596 0.2719388 1.94525
-1.0706149 0.30092663 1.9500229
-1.0562418 0.30504313 1.95515
-1.0126714 0.30525151 1.9606667
-1.0015423 0.30157647 1.9581389
-0.98594695 0.30308488 1.94675
-0.94160271 0.29726818 1.9577875
-0.92585772 0.29520521 1.9516001
-0.90864569 0.29862085 1.9459724
-0.89458901 0.30139211 1.9463335
-0.87357491 0.29471275 1.9473751
-0.85608655 0.29306737 1.9513215
-0.83456397 0.29510868 1.9514444
-0.81842017 0.29441518 1.9468501
-0.80351794 0.2938346 1.9451177
-0.78156322 0.29352355 1.9500908
-0.7629689 0.30251789 1.9510313
-0.74479926 0.29851615 1.9482061
-0.73121744 0.29322514 1.9497709
-0.71110648 0.29630512 1.95575
-0.69363177 0.29096413 1.9528337
-0.67541122 0.28995609 1.9526503
-0.65808439 0.28935078 1.955719
-0.63362193 0.29316348 1.9457501
-0.62569666 0.293201 1.9460001
-0.58069408 0.29092592 1.9525938
-0.56859487 0.29374692 1.9525001
-0.55348879 0.2899383 1.9553931
-0.52381802 0.2894429 1.9536251
-0.51368105 0.29487526 1.9520358
-0.49823582 0.2948215 1.9478971
-0.47095421 0.2907936 1.9579645
-0.46243948 0.2953974 1.9557779
-0.44101956 0.2941153 1.9507942
-0.42437553 0.29310843 1.9508128
-0.40615544 0.2906836 1.9478215
-0.39342356 0.29009634 1.9470001
-0.36183339 0.2925114 1.9522501
-0.35748428 0.29296091 1.9552501
-0.3418045 0.29213682 1.9497501
-1.0691606 0.30759022 1.9458216
-1.0353621 0.306997 1.9509168
-1.0161928 0.30993992 1.9504812
-1.0056596 0.3068921 1.9502501
-0.97629905 0.3068921 1.9502501
-0.96312761 0.30789527 1.9566251
-0.94353831 0.3084698 1.9499376
-0.92841309 0.30716461 1.9460715
-0.91512227 0.30606595 1.9450001
-0.88561982 0.30655113 1.9480834
-0.74803483 0.30624691 1.9461502
-0.09861318 0.015123859 1.9773502
-0.088663772 0.015119269 1.9767501
-0.044843391 0.015261544 1.9719443
-0.02744391 0.015084006 1.972771
-0.014268003 0.016761974 1.9755001
0.22395864 0.016787428 1.9785001
0.29980031 0.015119269 1.9767501
0.30830842 0.015050432 1.9677501
0.37314406 0.012152213 1.9782337
0.38704157 0.012191215 1.9786112
0.40454566 0.01525617 1.9753411
0.41891769 0.015121485 1.9772085
0.46423554 0.015089862 1.9730626
0.47310537 0.015315956 1.9717143
0.51861817 0.015672075 1.9770001
0.5282377 0.015128193 1.9779376
0.62878364 0.016685609 1.9665
0.63536149 0.016685609 1.9664999
0.71541405 0.016750308 1.9741251
0.72410107 0.0167222 1.9708126
-0.21630736 0.033107728 1.9650002
-0.20652401 0.033120364 1.96575
-0.19059964 0.033209659 1.97105
-0.16824335 0.033352032 1.9795002
-0.15328909 0.033339392 1.9787501
-0.13350633 0.028964929 1.9768124
-0.11659681 0.026946055 1.9787242
-0.098546945 0.026681338 1.9760001
-0.081394948 0.027706675 1.9736602
-0.062271312 0.028814338 1.9713835
-0.046564292 0.020528981 1.9670833
-0.025278516 0.025831528 1.9660981
-0.010061033 0.027663831 1.9679048
0.0062642801 0.030835094 1.9698216
0.026576599 0.030234586 1.9768215
0.046772294 0.032409102 1.9724377
0.062170945 0.029216465 1.9687252
0.081334107 0.026604682 1.9702501
0.12047828 0.033087719 1.9638126
0.1344289 0.032261774 1.9636252
0.15440169 0.031086037 1.9670937
0.17099489 0.031385269 1.9696368
0.18936056 0.025533117 1.9723611
0.20767184 0.026404129 1.9686185
0.22500589 0.026841108 1.9697887
0.24204062 0.027735502 1.9731458
0.26279327 0.025525933 1.9720211
0.27942604 0.030382382 1.9713572
0.29529139 0.025294369 1.9709501
0.31300509 0.021288004 1.9662502
0.3334924 0.028259009 1.9707
0.35060844 0.030783935 1.9743438
0.36911491 0.026253849 1.9701185
0.38958928 0.022398982 1.9627502
0.40351552 0.026134966 1.9642502
0.42177302 0.022103637 1.9731251
0.44050837 0.026604682 1.9702501
0.46259558 0.023733683 1.971344
0.47644508 0.026844384 1.9694997
0.4956485 0.027765187 1.9679661
0.51340616 0.026998069 1.9676739
0.52996147 0.024924409 1.9765668
0.54571986 0.030757662 1.9723752
0.56515223 0.026655318 1.9740001
0.60392433 0.021612957 1.9658749
0.61912054 0.021286482 1.9661001
0.63618374 0.020797456 1.9665
0.66310298 0.02496314 1.9707501
0.67575806 0.025037738 1.9766946
0.69085258 0.025183767 1.9751751
0.7142778 0.023902016 1.9697502
0.72808611 0.02519658 1.9686842
0.74625456 0.028256673 1.9705502
0.76246762 0.033225667 1.9720001
-0.21796453 0.038040601 1.9651251
-0.20961942 0.036374632 1.9639168
-0.18077552 0.036519717 1.9717501
-0.17248237 0.036509298 1.9711876
-0.14593297 0.036466464 1.9688751
-0.13630894 0.039670151 1.9645499
-0.11350083 0.040090643 1.9735178
-0.099988334 0.040647909 1.9696168
-0.020565508 0.042201802 1.963389
-0.011718851 0.04170217 1.9634688
0.01284022 0.037901785 1.9703572
0.025729859 0.037724614 1.9703438
0.045082167 0.038141999 1.9704794
0.058141522 0.036415532 1.9661251
0.12047828 0.036372703 1.9638126
0.13187401 0.036345303 1.9623333
0.16032937 0.039026048 1.9651501
0.16662419 0.0380527 1.9657501
0.22868253 0.037984949 1.96225
0.23685724 0.037980109 1.9620001
0.39983919 0.038986739 1.9631001
0.47462574 0.03645489 1.96825
0.50367606 0.036413219 1.9660001
0.5114342 0.039058901 1.9667499
0.74735218 0.039440028 1.9656152
0.94507188 0.25045073 1.9768336
0.95448482 0.25112933 1.9735001
0.98838592 0.25093845 1.9720001
0.9944979 0.24908099 1.9729999
-0.83434248 0.26812685 1.9771252
-0.73992622 0.26746574 1.9722501
-0.73161727 0.26744315 1.9720834
-0.58216083 0.26696849 1.9685835
-0.56953299 0.26869825 1.9661876
-0.49468485 0.26608574 1.97425
-0.39867726 0.26756746 1.973
-0.38857931 0.26681134 1.9743928
-0.34409857 0.26581514 1.9722501
-0.33391553 0.2670137 1.9673334
-0.30694249 0.2681438 1.9772501
-0.29672256 0.26787257 1.97525
-0.28109416 0.26297641 1.9757189
0.93277854 0.25720933 1.9695001
0.94582969 0.25537056 1.9744062
0.96250582 0.25599355 1.9696562
0.98052597 0.25873211 1.9727777
-1.0827249 0.28536984 1.9763125
-1.0715711 0.2816239 1.9781349
-1.0144359 0.28607082 1.9640833
-1.0063214 0.28656846 1.9675001
-0.9795081 0.28690529 1.9698126
-0.9607622 0.28660551 1.9753333
-0.92451894 0.28040808 1.9675938
-0.90931857 0.28449821 1.9718639
-0.8903625 0.27996373 1.9673705
-0.87406141 0.28212535 1.9705204
-0.85312599 0.28162062 1.9687639
-0.83706409 0.27959448 1.973429
-0.82008547 0.28043485 1.9719343
-0.8003453 0.28067717 1.968514
-0.78392553 0.28348482 1.9713687
-0.76533037 0.28344321 1.9703214
-0.74800891 0.2792559 1.9672631
-0.7283771 0.27530012 1.97165
-0.71189594 0.28243288 1.9713029
-0.69376266 0.28422698 1.9695168
-0.67290747 0.28322995 1.9697222
-0.65813601 0.27846855 1.9671389
-0.63826394 0.28276324 1.963931
-0.62310457 0.28285247 1.9731565
-0.60085827 0.27740148 1.9694501
-0.58431667 0.2772136 1.9665302
-0.56741571 0.27714422 1.9637001
-0.55099362 0.27471027 1.9650832
-0.52888262 0.27899808 1.9663439
-0.51227289 0.27910054 1.9653019
-0.49582016 0.27811638 1.9715807
-0.4788819 0.2822299 1.9717001
-0.46003532 0.28529838 1.9711591
-0.44160733 0.28357956 1.9657918
-0.42129466 0.27944839 1.9721818
-0.40440717 0.27594623 1.9712113
-0.38709605 0.27211514 1.9690228
-0.36695647 0.28058997 1.9663386
-0.35031489 0.27972215 1.9647088
-0.33291525 0.27832583 1.9632679
-0.31584203 0.27593309 1.9693463
-0.29859716 0.27168399 1.9721072
-1.0848385 0.2946738 1.9737273
-1.0711187 0.29676405 1.9741983
-1.0560176 0.29989874 1.9780436
-1.0320908 0.3015945 1.9689251
-1.0165716 0.29732791 1.9629676
-0.99931383 0.29559177 1.9640625
-0.98094577 0.2977806 1.9647754
-0.96454293 0.2988551 1.9675333
-0.95312518 0.29399455 1.9731668
-0.9198364 0.29120886 1.9655001
-0.90842783 0.29250747 1.9648846
-0.89245731 0.29606381 1.9641943
-0.85180247 0.29248607 1.9650456
-0.83932543 0.29157567 1.9642779
-0.78088862 0.29259625 1.9677956
-0.76511109 0.29485995 1.9653217
-0.75295168 0.29308113 1.9642813
-0.72105181 0.29026476 1.9702501
-0.71316642 0.29296193 1.9686944
-0.70016325 0.289123 1.9625001
-0.67764014 0.29001921 1.9685835
-0.57693201 0.28904936 1.9620001
-0.50804383 0.29070267 1.9620835
-0.45814142 0.29237413 1.9642956
