# .PCD v0.7 - Point Cloud Data file format
VERSION 0.7
FIELDS x y z rgb
SIZE 4 4 4 4
TYPE F F F U
COUNT 1 1 1 1
WIDTH 1212
HEIGHT 1
VIEWPOINT 0 0 0 1 0 0 0
POINTS 1212
DATA ascii
-0.88055485 0.084014148 2.31425 7744
-0.81188238 0.076637514 2.32075 4672574
-0.80043542 0.078441568 2.3141003 4474428
-0.92258823 0.1018874 2.3180001 8785
-0.91145951 0.09640497 2.3081787 8779
-0.88665134 0.093980439 2.3103752 8259
-0.8795234 0.10184397 2.3169 8256
-0.81122649 0.099393427 2.3188753 4671554
-0.80100268 0.10529546 2.3186667 4803396
-0.92216122 0.11135916 2.30425 8783
-0.88804626 0.12037504 2.3161669 8514
-0.88013083 0.11369219 2.3175833 8259
-0.81214476 0.1198065 2.3215001 4804165
-0.80645293 0.12225217 2.3197501 4803140
-0.90350461 0.13716355 2.3146253 8263
-0.89455122 0.12877825 2.3155003 7746
-0.81196988 0.12739275 2.3210001 5002313
-0.80428016 0.12698111 2.3135002 4804934
-0.90325058 0.14935207 2.3075001 8261
-0.89323366 0.15610655 2.3103502 8260
-0.79234612 0.15697387 2.3082502 4867906
-0.94189954 0.17519133 2.3155627 804981
-0.92686397 0.17775595 2.316 9297
-0.9078663 0.17398389 2.3106668 8262
-0.89216459 0.16922955 2.3102 8004
-0.87979388 0.16482922 2.3122501 7231
-0.93974531 0.18285918 2.3165002 672621
-0.92634863 0.18971337 2.3158636 9292
-0.90861106 0.19030932 2.314719 8518
-0.89349282 0.1897839 2.3186111 8519
-0.92139417 0.2080487 2.3150001 74823
-0.90969276 0.20741697 2.3135998 8775
-0.89160353 0.20674768 2.3135962 8520
-0.87832642 0.21122527 2.3128335 8773
-0.92149371 0.22072646 2.3152502 74826
-0.91077942 0.2223938 2.3137858 74825
-0.89230102 0.22103614 2.3096666 9034
-0.87612653 0.2212068 2.3115003 74310
-0.51418072 0.51512122 2.31125 5067597
-0.51327574 0.53153741 2.3098929 7042921
-0.50355911 0.52720034 2.3051252 6780520
-0.5256809 0.54937613 2.3136251 7108202
-0.51783341 0.54233211 2.3087502 6910825
-0.52625841 0.56770861 2.3161669 7174252
-0.51736563 0.57378429 2.3066666 7239272
-0.93655133 0.59016615 2.3148751 602975
-0.92700934 0.58824492 2.3147814 602716
-0.52684534 0.57847947 2.3187501 7632491
-0.51414901 0.5838362 2.3118501 7370348
-0.50353181 0.5901683 2.3050001 7240304
-0.97460598 0.60948902 2.3210001 5137007
-0.96477723 0.60763031 2.3187501 5005423
-0.93690532 0.59798396 2.3157501 1063010
-0.92710793 0.6032722 2.3166113 733526
-0.91741347 0.6086356 2.3177502 797772
-0.51028913 0.60222769 2.3127501 7700086
-0.9779222 0.62374169 2.3195002 4873831
-0.96367294 0.62168002 2.3191457 4216426
-0.94710368 0.61975491 2.3143439 3558758
-0.92873275 0.61490375 2.3175001 599875
-0.91022062 0.61932552 2.3166668 403781
-0.52605087 0.62453228 2.3078334 8884867
-0.51740712 0.6168592 2.3106251 8094585
-0.97382343 0.63270843 2.3131251 6581101
-0.96462339 0.63992184 2.316375 5660002
-0.95276898 0.63893062 2.3173335 2767429
-0.91351908 0.64240563 2.3207502 533832
-0.52567011 0.6324861 2.3061669 8886151
-0.51428539 0.63934112 2.305125 8819594
-0.96117485 0.64959639 2.3192501 1382940
-0.91214132 0.65409487 2.3172503 795708
-0.51598048 0.65990287 2.3080001 9015433
-0.50016761 0.6556859 2.3050001 8818564
-0.95982766 0.67906868 2.316 4545638
-0.94562757 0.67684656 2.3158214 3099740
-0.90268785 0.67363375 2.3060627 534340
-0.5254063 0.67296547 2.3124168 9080198
-0.51262218 0.67516369 2.3095665 8949379
-0.5016588 0.67420399 2.3080001 8883076
-0.96267527 0.68941945 2.31675 4216932
-0.94394648 0.68944991 2.3168502 2573916
-0.90409595 0.69139302 2.3064375 731973
-0.89946282 0.69773847 2.31075 666956
-0.51237482 0.69268066 2.310729 8950151
-0.49949369 0.69236165 2.3096669 9146248
-0.902969 0.71113813 2.3132501 1060681
-0.89975482 0.70301896 2.3115001 929610
-0.51293409 0.70910519 2.3163636 9081223
-0.49932247 0.70474398 2.3088751 9146500
-0.51429796 0.72721791 2.3167696 9147273
-0.50369567 0.72647691 2.3057501 9213065
-0.52602172 0.74208522 2.315125 9212811
-0.51443064 0.74687862 2.3142917 9147018
-0.52661812 0.77079856 2.3177502 9541008
-0.51250172 0.76429665 2.3151112 9212043
-0.52673167 0.78110307 2.3182499 9344399
-0.51871103 0.77584672 2.3126669 9343888
-0.5223304 0.79733866 2.3212502 9344659
-0.51401323 0.80386776 2.3181252 8754317
-0.5112958 0.81878555 2.3173127 0
-0.51222736 0.83948892 2.313875 0
-0.52633291 0.85823667 2.3076 0
-0.51048779 0.85502934 2.3083656 0
-0.49918732 0.85848159 2.3082502 0
-0.53035957 0.87203234 2.3174376 0
-0.51057357 0.87117624 2.3075001 0
-0.49910623 0.87095731 2.3078752 0
-0.50631702 0.94816583 2.31775 0
-0.51130545 0.9660188 2.3206429 0
-0.4990927 0.96176016 2.3078127 0
-0.52216166 0.97465718 2.3205001 0
-0.51457936 0.97987777 2.3168542 0
-0.5262205 0.99302226 2.3160002 0
-0.51066798 1.0183989 2.3079286 0
-0.49902511 1.024694 2.3075001 0
-0.50473326 1.036129 2.3105001 0
-0.49560973 1.0351857 2.308393 0
-0.50473326 1.0462331 2.3105001 0
-0.49663413 1.0451577 2.308125 0
-0.50478786 1.0968691 2.31075 0
-0.49337599 1.0930219 2.3106251 0
-0.5085516 1.1117181 2.3048751 0
-0.49644408 1.1054889 2.311167 0
-0.51844883 1.1339654 2.3040001 0
-0.92070287 -0.88420188 2.3390002 664889
-0.92316502 -0.87643701 2.3387501 7482
-0.91686493 -0.87033057 2.3292501 7224
-0.8320635 -0.85187155 2.3298333 4083271
-0.82363158 -0.85112196 2.3324375 4739913
-0.83571392 -0.83768708 2.3305418 2439492
-0.82621193 -0.83790237 2.3354001 4544069
-0.94064766 -0.81282473 2.325 205633
-0.83827341 -0.8183859 2.3336074 1453376
-0.82302153 -0.81838197 2.3350501 4347204
-0.92683953 -0.80245703 2.3244169 74049
-0.83839482 -0.79982322 2.3292692 993344
-0.82303828 -0.80134213 2.3338571 4543303
-0.84918976 -0.77995002 2.3255 7221
-0.83676547 -0.78200674 2.3283927 1649989
-0.82429433 -0.78290451 2.3343124 4675149
-0.53966349 -0.77899557 2.33025 4213056
-0.84918976 -0.77232319 2.3255 7744
-0.83916473 -0.76541585 2.331018 1255490
-0.82513666 -0.76534933 2.3352501 4607814
-0.53613669 -0.76487309 2.3260002 5003343
-0.85227382 -0.74244845 2.3235002 7228
-0.83695698 -0.74735093 2.326896 1387330
-0.82538915 -0.75165367 2.335 4476224
-0.52754664 -0.74553335 2.3308003 4740168
-0.51813883 -0.74173623 2.3252501 4541508
-0.85356164 -0.73357087 2.3235419 7740
-0.83511478 -0.73049772 2.325577 1584707
-0.82185084 -0.72965533 2.3284285 4083011
-0.54573035 -0.72806162 2.3343749 4279616
-0.53135484 -0.7295571 2.3257859 4080957
-0.51813883 -0.73665226 2.3252501 4214843
-0.83690369 -0.71130657 2.3338504 2043714
-0.82448471 -0.71358997 2.3363004 4476740
-0.54314554 -0.716537 2.3342502 3291958
-0.53170013 -0.70810175 2.3289168 3619129
-0.84996575 -0.68905759 2.3276253 7751
-0.84410328 -0.69406885 2.3302085 7490
-0.84928107 -0.67833352 2.3257501 7747
-0.83775884 -0.67574459 2.3271818 1256518
-0.826828 -0.67315584 2.3342502 4476998
-0.83589643 -0.65748101 2.3239377 1651015
-0.82246965 -0.65657932 2.32675 4673088
-0.85010231 -0.63252962 2.335 8255
-0.83608735 -0.63890558 2.3239231 1519430
-0.82123232 -0.63976681 2.3242002 4542790
-0.85078055 -0.62205446 2.3316252 7747
-0.83591199 -0.62346441 2.3323636 2636875
-0.82370895 -0.62359405 2.33025 4477507
-0.9453004 -0.5971759 2.3365002 208721
-0.84963584 -0.60411966 2.3337188 8005
-0.83672959 -0.60402554 2.3333542 2569542
-0.8263852 -0.60393405 2.3330002 4411716
-0.94590729 -0.58733386 2.3380003 143445
-0.93308991 -0.5861277 2.3230832 77904
-0.84944278 -0.58867729 2.3331876 8002
-0.83560622 -0.58646619 2.3320003 2701641
-0.82325715 -0.58567184 2.3313751 4279871
-0.85276592 -0.56240934 2.3353126 7225
-0.83600968 -0.56562912 2.33705 3357753
-0.82108349 -0.56610507 2.3324442 3882804
-0.92965293 -0.54336125 2.3357501 8783
-0.85168898 -0.54866576 2.3336365 7229
-0.83769941 -0.54967266 2.3372498 2832956
-0.81876892 -0.5540567 2.3362503 3686196
-0.80525964 -0.55499768 2.3310001 3817269
-0.78765935 -0.5432269 2.3242502 3620660
-0.92985189 -0.53581548 2.3362501 7496
-0.85128325 -0.53193104 2.3352501 7481
-0.84346998 -0.53107464 2.3378751 1452861
-0.81485599 -0.52402461 2.3292501 3686712
-0.80494893 -0.52965939 2.3271499 3620916
-0.93983859 -0.51246035 2.3230002 868196
-0.92705476 -0.51122296 2.3260312 208467
-0.85035187 -0.51270986 2.3356876 7230
-0.83769184 -0.5130468 2.3372293 2832957
-0.82038718 -0.51155144 2.3304501 3818295
-0.80723512 -0.51731658 2.322 3686461
-0.92826867 -0.50292385 2.325875 207953
-0.8508054 -0.49810892 2.3271499 7743
-0.84045208 -0.49491674 2.3330624 2241857
-0.81816339 -0.49621814 2.3332188 4278586
-0.80884302 -0.49545267 2.3266251 4213304
-0.84107965 -0.47442904 2.3312731 1782339
-0.81700712 -0.47434282 2.3353927 4541761
-0.84942979 -0.45853081 2.3296566 8003
-0.83745778 -0.4590255 2.3353891 3819336
-0.82322711 -0.45996687 2.3364644 4871491
-0.80871266 -0.46485972 2.3262501 4542015
-0.86520988 -0.43711904 2.3275001 9545
-0.85361397 -0.44025674 2.3306406 8774
-0.83778954 -0.44132778 2.3363128 4148050
-0.82137257 -0.43993533 2.3356876 5462603
-0.80232328 -0.43618041 2.3225002 5133125
-0.86483824 -0.42675817 2.3265002 10058
-0.85428005 -0.42275035 2.3324585 9288
-0.83775777 -0.4234339 2.3362224 4279891
-0.82365704 -0.42234698 2.3349168 5791057
-0.80094206 -0.42409715 2.325875 5330249
-0.94573879 -0.4010658 2.325 2051441
-0.86623216 -0.39942396 2.33025 10060
-0.85513544 -0.40510252 2.3327503 10060
-0.83864027 -0.40645227 2.3373866 4016212
-0.81830621 -0.40814579 2.3364546 5856592
-0.80061966 -0.40582603 2.3304687 5658698
-0.94062394 -0.3817555 2.3312502 1132913
-0.86704195 -0.38520712 2.329 9805
-0.85409695 -0.38697124 2.3319585 9549
-0.81192839 -0.38500684 2.3355002 5593425
-0.80099535 -0.38675648 2.3245502 5790545
-0.93999255 -0.37253287 2.3309503 1263983
-0.93264151 -0.3688843 2.3304377 474986
-0.86727315 -0.36946079 2.3271787 9549
-0.85643125 -0.37065509 2.3313637 9549
-0.81542444 -0.36385828 2.3308749 5724241
-0.80167955 -0.36843407 2.3265333 5659473
-0.78658289 -0.3673465 2.3260834 5725006
-0.93576807 -0.34200248 2.3382502 213611
-0.8646524 -0.34529641 2.3260002 9293
-0.85571057 -0.34999585 2.3276563 9806
-0.84466648 -0.34394467 2.334125 534348
-0.81297129 -0.35226494 2.3385 5856598
-0.80033261 -0.35307074 2.3293931 5659474
-0.93726665 -0.32540789 2.3292501 1329782
-0.86859304 -0.33162716 2.3241594 9551
-0.85476321 -0.33269885 2.3268125 9805
-0.84483349 -0.33371529 2.3303502 205128
-0.94059885 -0.31463432 2.3324502 1133429
-0.86649895 -0.31961036 2.3241251 9293
-0.85462904 -0.31571275 2.3281879 9549
-0.94155407 -0.29852983 2.3314447 871282
-0.85109562 -0.29844344 2.3320003 8782
-0.83659649 -0.29484567 2.3372753 3556687
-0.79411316 -0.28963435 2.3282502 5725782
-0.94294029 -0.27974239 2.3306668 1199479
-0.84956777 -0.27874857 2.3345358 8265
-0.83686024 -0.2793265 2.3370192 3556172
-0.79938304 -0.27951327 2.3287501 5397071
-0.94428897 -0.25717962 2.3340001 2118008
-0.8497687 -0.26203391 2.3317499 8264
-0.84325731 -0.25843239 2.33375 664392
-0.81573057 -0.25693554 2.3317499 5529159
-0.94909465 -0.24944448 2.33325 2839923
-0.84982216 -0.24207878 2.32375 9034
-0.84251547 -0.24381141 2.3281667 466757
-0.81354415 -0.24607451 2.3255 5528651
-0.854159 -0.22392736 2.3261168 8778
-0.84338117 -0.22815089 2.3329167 203584
-0.81678015 -0.21897629 2.3347502 5591881
-0.85233527 -0.20732589 2.3329794 8006
-0.84339494 -0.2090252 2.3376667 1518154
-0.81242085 -0.20385011 2.3369167 5792339
-0.85855335 -0.19052631 2.3301876 8514
-0.81519037 -0.18838137 2.3350832 5988694
-0.80303305 -0.18722327 2.3278334 5988693
-0.86701137 -0.16726202 2.3255002 7738
-0.86038876 -0.17000799 2.3282499 7738
-0.81459361 -0.17002469 2.3285 5857366
-0.80171239 -0.16999623 2.3281095 6119513
-0.78890902 -0.16998383 2.3279376 6580061
-0.86644298 -0.15544958 2.3262501 7482
-0.85644537 -0.15140839 2.3274286 6967
-0.83345407 -0.14774656 2.3385 5397582
-0.82050061 -0.15183276 2.3325939 5660498
-0.8023544 -0.15263289 2.3279548 6186074
-0.85188192 -0.13392618 2.3307309 5682
-0.8371141 -0.13410972 2.3357275 4410186
-0.82084745 -0.13481635 2.3359287 5988695
-0.8041144 -0.1368838 2.3276787 6316636
-0.86676216 -0.11543723 2.3262 6965
-0.85360175 -0.11667413 2.3306043 5167
-0.83738834 -0.11690272 2.3351946 4606545
-0.8216126 -0.11684111 2.3339446 5857113
-0.97711247 -0.09477222 2.3350835 2898497
-0.9637512 -0.093173169 2.3291502 2241079
-0.94560546 -0.090962715 2.3246667 659994
-0.86493111 -0.10630605 2.32675 6453
-0.85358155 -0.099288739 2.3291667 5168
-0.83493596 -0.10121025 2.3383503 4542283
-0.81758618 -0.098958932 2.333396 5529173
-0.80667096 -0.097966783 2.3301668 5989209
-0.96298617 -0.082038723 2.3359585 2966341
-0.94547248 -0.081474841 2.3259063 2835268
-0.86604631 -0.075880133 2.3297501 6708
-0.85805815 -0.081083804 2.3330252 5939
-0.81586736 -0.08105693 2.332139 5791573
-0.80225456 -0.081941046 2.3282003 6250839
-0.95614636 -0.07103698 2.3380001 2308935
-0.94416022 -0.064101212 2.3336668 2114650
-0.86809826 -0.064230002 2.3293931 6709
-0.85817462 -0.063319951 2.3361044 5939
-0.81691056 -0.064863808 2.3302503 5396815
-0.80862576 -0.06304393 2.3260002 5396816
-0.93743438 -0.045315366 2.3296669 867936
-0.85396951 -0.044854391 2.3297274 5171
-0.8136608 -0.045241166 2.3258336 5133133
-0.80402881 -0.04460096 2.3255939 5593938
-0.93766904 -0.03513705 2.33025 408930
-0.93296665 -0.027505646 2.3312502 77146
-0.86992526 -0.023760684 2.3249724 7486
-0.8575595 -0.028100658 2.3323078 5688
-0.81334734 -0.027433146 2.3249376 5198415
-0.80291545 -0.029239433 2.3242145 5527376
-0.88426459 -0.007095349 2.3240001 8517
-0.8726868 -0.0096475827 2.3270626 8515
-0.85790026 -0.010315623 2.3336253 6715
-0.8129319 -0.012175842 2.32375 5329740
-0.94125462 0.015786724 2.3265002 868207
-0.88459754 0.0030673624 2.3248751 8517
-0.87322336 0.0076601678 2.32985 8261
-0.85914218 0.0081749847 2.3317814 7492
-0.81249464 0.015759582 2.3225002 5527885
-0.94085354 0.026718901 2.329107 540265
-0.86728448 0.025966212 2.3276 8003
-0.85888439 0.026010856 2.3310835 7494
-0.8123197 0.023371514 2.322 6846308
-0.9428311 0.04383665 2.3303957 934512
-0.93221629 0.048910655 2.3293753 10578
-0.88531095 0.051399305 2.32675 8005
-0.87182033 0.04567096 2.3305893 8004
-0.86089343 0.040356912 2.3351502 7745
-0.81311113 0.04645671 2.3340003 5330760
-0.80949485 0.051437967 2.3285 4739904
-0.94119757 0.059919108 2.3284585 803439
-0.93186611 0.05652906 2.3285 8273
-0.88586402 0.062880501 2.3282189 8005
-0.87527233 0.063916184 2.3351045 8005
-0.82099038 0.060540486 2.3358126 4738626
-0.94010824 0.081815638 2.3236668 804210
-0.93265998 0.086912036 2.3241253 11349
-0.8711763 0.080407664 2.3321531 7490
-0.85951674 0.087496333 2.3397501 7240
-0.82330066 0.072118416 2.3387501 4672576
-0.94228703 0.10425774 2.33325 408678
-0.92982417 0.097122692 2.3252144 9807
-0.86941141 0.098566793 2.3251252 7744
-0.85828376 0.10153469 2.3294585 7231
-0.95532852 0.11289357 2.3360002 1658745
-0.94214708 0.11707607 2.3302813 606061
-0.88423216 0.12282529 2.3306251 8256
-0.87450647 0.11716281 2.3319063 8000
-0.8605752 0.1125432 2.3287501 7487
-0.90432853 0.14275509 2.3232501 8263
-0.8900854 0.1358473 2.3268166 8002
-0.87830395 0.13826606 2.3332858 7744
-0.80569148 0.1433081 2.3322501 5000769
-0.94299042 0.15553778 2.3245001 738670
-0.93545598 0.14793016 2.3247502 11601
-0.90432853 0.1478347 2.3232501 9031
-0.89125073 0.15130438 2.3245282 7744
-0.87335819 0.15397181 2.3337502 7487
-0.81214559 0.1563144 2.3361249 4672320
-0.80635357 0.15363413 2.3341668 4539964
-0.88548392 0.17658103 2.3227501 8259
-0.87306225 0.17103651 2.3334737 8001
-0.81184149 0.16902171 2.3352501 4540220
-0.88503641 0.18715665 2.3226876 8004
-0.87234253 0.18870534 2.3261459 8003
-0.93166602 0.20667472 2.3280001 8779
-0.88364637 0.20109478 2.3223753 8517
-0.87193197 0.20531948 2.3250537 8002
-0.86390889 0.21393877 2.3240001 8001
-0.86805421 0.22310507 2.3242002 8001
-0.85792255 0.22430949 2.3261669 7746
-0.54309505 0.5141471 2.3324645 4936264
-0.53056628 0.5145151 2.3301113 4343615
-0.54284519 0.53101593 2.3329585 7043438
-0.52896488 0.53091317 2.3280501 7042923
-0.90666312 0.55563533 2.3292501 5855053
-0.89063364 0.55422443 2.3340313 4870215
-0.87944639 0.55522466 2.3382502 4475216
-0.54025698 0.5488354 2.3328125 7304810
-0.53387272 0.54752296 2.3272502 7239017
-0.95614636 0.57050228 2.3380001 5133921
-0.94412404 0.56877267 2.3353927 3360087
-0.92773139 0.56792331 2.3309166 2111574
-0.90901858 0.56824422 2.3287501 995929
-0.89144838 0.56659365 2.334341 602200
-0.87921131 0.56530046 2.337625 471130
-0.54118818 0.5676648 2.3368332 7239787
-0.53410214 0.56557864 2.3282502 7174251
-0.94369167 0.58073646 2.334625 932961
-0.92630672 0.58229065 2.3289375 668506
-0.90813309 0.58549321 2.3264792 340313
-0.89487273 0.58370805 2.3295419 340056
-0.54186362 0.57860285 2.3397501 7174763
-0.53076094 0.58392936 2.3303752 7567472
-0.96027452 0.60794634 2.3306499 4874096
-0.94761753 0.60889798 2.3317082 2116203
-0.91982132 0.60006887 2.3238335 601941
-0.90854794 0.60284895 2.3247504 405332
-0.89493155 0.60252255 2.3267503 405333
-0.52486193 0.60740906 2.3325002 7962746
-0.51438755 0.60379344 2.3284066 7700086
-0.99225581 0.62529075 2.3326249 5201252
-0.94736785 0.61668193 2.329 2706276
-0.90397066 0.62026703 2.3260715 535890
-0.89449072 0.62263101 2.3274376 470870
-0.52987164 0.6189509 2.3320715 8094074
-0.51969862 0.61244327 2.3322501 7962744
-0.90594995 0.63770789 2.3290625 470610
-0.89243507 0.6378901 2.3320556 405846
-0.54047406 0.64345253 2.33375 9147018
-0.53483385 0.63873297 2.325875 9016712
-0.90905887 0.6573658 2.3344038 600651
-0.89645255 0.65451807 2.3368213 405590
-0.52745533 0.65475583 2.3304 9016459
-0.90493101 0.67455536 2.3304288 601169
-0.53326857 0.67465222 2.3357501 9015431
-0.90348202 0.69147938 2.3285713 536139
-0.89871979 0.70054853 2.3285003 536396
-0.54180574 0.70130455 2.3395002 9542028
-0.53346097 0.69701815 2.33885 8752514
-0.8975215 0.70670438 2.332 864074
-0.54775608 0.71143824 2.3367858 9279113
-0.53125364 0.71081644 2.3343751 8753286
-0.54963201 0.7268877 2.3340557 9410191
-0.53203344 0.7248773 2.3303335 9146761
-0.54459083 0.73905319 2.3295002 9410444
-0.53394479 0.74734414 2.3275626 9147273
-0.54099518 0.77176028 2.3360002 9344399
-0.53119522 0.76391876 2.3328612 9278092
-0.54365093 0.78211564 2.336417 9475471
-0.53514868 0.78345984 2.3328128 9343886
-0.54460853 0.80050272 2.3389645 9410189
-0.53232038 0.80327129 2.3363931 9344399
-0.51791602 0.80853283 2.3242502 8885644
-0.52703416 0.8193019 2.3376002 3619897
-0.51901156 0.82042789 2.3291667 0
-0.53084344 0.83762962 2.3288665 0
-0.51877016 0.83531612 2.3280835 0
-0.53386509 0.85445046 2.3247499 0
-0.5413425 0.87958205 2.3375001 0
-0.53056836 0.88634551 2.335125 0
-0.51975435 0.88790035 2.3325002 0
-0.51558453 0.91506374 2.33675 0
-0.51839304 0.92061591 2.3378749 0
-0.52382118 0.94976097 2.3278751 0
-0.51432002 0.94741678 2.3252501 0
-0.52278042 0.96565032 2.3232501 0
-0.51506674 0.95787841 2.322875 0
-0.53008312 0.98245794 2.3330002 0
-0.53178602 0.99521035 2.3330002 0
-0.52300549 1.0270504 2.3242502 0
-0.5128265 1.0321321 2.3242502 0
-0.54093724 1.1087362 2.3357501 0
-0.51797169 1.1338902 2.3245001 0
-0.52770615 1.1412188 2.3270001 0
-0.53565055 1.1543279 2.335 0
-0.56254637 -0.78261852 2.3534 4543821
-0.55261523 -0.78168833 2.3506 4740941
-0.5479508 -0.76552719 2.3470001 5133645
-0.53691226 -0.75683552 2.3405001 5068884
-0.5479002 -0.74505353 2.3436668 5003085
-0.53587502 -0.74822158 2.3415627 4806221
-0.56313854 -0.73459136 2.3430002 5068106
-0.55414957 -0.73177212 2.3421786 4542788
-0.83741856 -0.70455778 2.3496251 3884361
-0.54729956 -0.7106114 2.348417 3028785
-0.53728068 -0.70497513 2.3495836 4341825
-0.84649158 -0.69713598 2.3462501 7741
-0.83784503 -0.69409043 2.3508213 3622216
-0.82796496 -0.69370198 2.352 4214854
-0.54730523 -0.69888163 2.3521252 4281154
-0.83037019 -0.68116522 2.3442502 4412232
-0.94671643 -0.57760549 2.3400002 12119
-0.85262728 -0.58064342 2.3419375 8001
-0.84339875 -0.57990927 2.342417 861249
-0.8517049 -0.57121068 2.3417501 7741
-0.84056854 -0.57073581 2.3412001 2043962
-0.83193439 -0.54438567 2.3438337 3161142
-0.81908447 -0.5446592 2.3413334 3620406
-0.80538201 -0.54634732 2.3412502 3686195
-0.94420791 -0.52277493 2.3465002 1130852
-0.93383199 -0.5278492 2.3462501 10061
-0.83652771 -0.53252536 2.3442502 2898228
-0.82127547 -0.53388298 2.3427083 3554358
-0.83461243 -0.52171671 2.3417501 3291441
-0.83630824 -0.49173069 2.3483126 4213564
-0.82507724 -0.48902312 2.3486669 4279100
-0.83582914 -0.47999606 2.3480504 4082239
-0.82504779 -0.48044744 2.3485835 4541504
-0.95079958 -0.42736015 2.34375 1395567
-0.83089828 -0.40039861 2.3409169 5594450
-0.82232541 -0.40038458 2.3408334 5725265
-0.83760446 -0.3862308 2.342953 4345171
-0.82159168 -0.38719204 2.343611 5790286
-0.94965708 -0.36613536 2.3421998 1526641
-0.85118157 -0.3665508 2.3426669 270925
-0.83825946 -0.36936405 2.3467503 4280660
-0.82525021 -0.37036821 2.3479376 5724242
-0.94383043 -0.35436913 2.3439689 1132146
-0.8502509 -0.35636505 2.3453002 468300
-0.83709013 -0.35113221 2.3523283 4870993
-0.82482308 -0.35442302 2.3528335 5527375
-0.83824354 -0.3329339 2.3519616 4673620
-0.81818634 -0.33051082 2.3535001 5725268
-0.80679667 -0.32987279 2.342875 5660241
-0.85011679 -0.31695953 2.3420832 7755
-0.83717269 -0.31509686 2.3438678 4344403
-0.81926709 -0.31456983 2.3433251 5659730
-0.80914605 -0.32210287 2.3422501 5594961
-0.83169293 -0.3014251 2.3407502 5660502
-0.81748849 -0.2947171 2.3416667 5528912
-0.80888695 -0.30152169 2.3415 5725264
-0.83086807 -0.27243325 2.3408334 5790030
-0.81989288 -0.27788159 2.3423185 5527884
-0.80960661 -0.28129366 2.3435833 5397071
-0.83481961 -0.26065743 2.3423338 5527374
-0.82349211 -0.26200607 2.3429375 5659464
-0.83504319 -0.24279819 2.3429587 5396045
-0.82468677 -0.24277034 2.3426876 5462603
-0.83581775 -0.22507498 2.345139 5199955
-0.82497281 -0.22492014 2.3435001 5265483
-0.83606857 -0.20719622 2.3509707 4738889
-0.8227492 -0.20771234 2.3518126 5791567
-0.85474396 -0.18832904 2.342469 7997
-0.83757216 -0.18978766 2.3480182 4475983
-0.82433218 -0.18950713 2.349 6054487
-0.85453129 -0.17112993 2.3436458 138044
-0.83791363 -0.17176042 2.3452499 4542027
-0.82558882 -0.17124778 2.3452501 5594194
-0.85039699 -0.15390059 2.344625 1056827
-0.83767557 -0.15502951 2.3455417 4805707
-0.84486806 -0.14283185 2.3417501 3685702
-0.84945136 -0.091572478 2.34025 2858
-0.84033501 -0.093630828 2.3405502 3819840
-0.84972364 -0.081364617 2.3410003 2341
-0.83748937 -0.08141955 2.3426249 4346186
-0.94948125 -0.055760935 2.3405001 2245473
-0.85038149 -0.063499406 2.3428125 2084
-0.83831501 -0.063556939 2.3449376 4607816
-0.82435679 -0.058348835 2.3417501 5396814
-0.9572711 -0.040413257 2.3407502 2572388
-0.94958264 -0.045531135 2.34075 1853029
-0.84999585 -0.05067065 2.3417501 3886
-0.83833677 -0.045613483 2.345 4804428
-0.82573551 -0.045625854 2.3456666 5462097
-0.95867604 -0.025186121 2.3525836 1917290
-0.94637251 -0.02712753 2.3429501 1064550
-0.85030407 -0.026603702 2.3486786 1779517
-0.8381716 -0.028310237 2.3495193 4870474
-0.82690895 -0.027713165 2.3490002 5198669
-0.95624709 -0.009752891 2.3508334 1721712
-0.9472664 -0.01314705 2.3455832 1129833
-0.85167074 -0.0090149064 2.3504288 1781567
-0.83814347 -0.010393602 2.3516564 4739653
-0.82752496 -0.0097463503 2.3507502 5133131
-0.9547894 0.0030983905 2.34725 1787763
-0.8527689 0.0082384879 2.3494167 1453127
-0.83977902 0.0085365828 2.3530281 4673867
-0.82668895 0.013366655 2.3483753 5659985
-0.95646739 0.023667591 2.3513751 1723252
-0.85561645 0.02480997 2.3552144 1453133
-0.8387484 0.021114195 2.3533332 4345416
-0.82408237 0.026175171 2.3458335 7109482
-0.85676438 0.046824515 2.3526819 1189700
-0.8364594 0.048622254 2.3565836 4804162
-0.82087564 0.040358905 2.3501251 5461575
-0.86479419 0.061928716 2.3401668 7746
-0.85540724 0.062176134 2.3496044 1584199
-0.83918613 0.062309802 2.3545833 4542018
-0.95587415 0.08274024 2.3499167 1396088
-0.85280806 0.079447098 2.3438671 1715785
-0.84035569 0.073883094 2.3542502 4476222
-0.95808607 0.099533379 2.3521876 1133691
-0.9512679 0.095637366 2.3512502 673655
-0.85205793 0.097934455 2.344625 2176072
-0.8262049 0.10316209 2.3470001 4934723
-0.96429634 0.10850703 2.351625 1396348
-0.8686015 0.12167604 2.3477001 7489
-0.85825974 0.11538149 2.3519166 860227
-0.82580882 0.11593398 2.3458753 4934467
-0.87236542 0.13454385 2.3492727 7232
-0.86002785 0.13599898 2.3528335 662077
-0.82108992 0.13676451 2.3449645 4869443
-0.95121735 0.14703149 2.3511252 738412
-0.8666265 0.14665735 2.3451252 6974
-0.85474902 0.15237574 2.3463669 2635601
-0.83621067 0.15478182 2.3516564 5199178
-0.82317388 0.15270507 2.349344 4869441
-0.86482495 0.17961718 2.34025 7747
-0.85497516 0.17168379 2.342521 2109007
-0.83872062 0.16877891 2.3460753 6120792
-0.82611686 0.16472307 2.34675 4804164
-0.86614919 0.19014327 2.3438332 7490
-0.85344356 0.18886849 2.3461967 4477028
-0.8380779 0.18695179 2.3466668 6185817
-0.86586434 0.20800695 2.3430626 7485
-0.86084002 0.20674169 2.3461502 5180
-0.8581444 0.22337121 2.3430002 70205
-0.55281842 0.51275587 2.3427501 4804416
-0.56140178 0.53654492 2.3572502 7174511
-0.55317235 0.53102446 2.34425 7108973
-0.86547852 0.55123633 2.3466666 5986637
-0.56301284 0.54538059 2.35535 7306093
-0.55187082 0.55022568 2.3496251 7502444
-0.8858906 0.57397741 2.3417501 340569
-0.87383759 0.56610477 2.3452001 470359
-0.54966092 0.56857699 2.3511877 7173995
-0.95973015 0.58775336 2.3518002 3365491
-0.89022195 0.5847559 2.3413439 208985
-0.87874532 0.58458078 2.3432086 340056
-0.54623252 0.58612692 2.3453002 7174766
-0.5373711 0.58952636 2.3425002 7435630
-0.96212006 0.60235769 2.3526073 3759221
-0.88803929 0.6018557 2.3406563 405846
-0.87903953 0.60271913 2.3440003 274773
-0.54394561 0.60125363 2.3443 7634548
-0.53333616 0.60240823 2.3428001 7831417
-0.98865801 0.62019038 2.3422501 4281711
-0.89077461 0.6198895 2.3411112 471638
-0.87404716 0.62253445 2.3481157 1128793
-0.85959697 0.62844843 2.3540001 4612190
-0.54395735 0.62381965 2.3443501 8291709
-0.53768647 0.61805844 2.3438749 8093310
-0.88714314 0.63660508 2.3423502 405846
-0.87369227 0.63775384 2.3503499 1720159
-0.8594144 0.63346076 2.3535001 4677733
-0.54961878 0.63903588 2.3416073 9146760
-0.89143896 0.65615553 2.3537002 275031
-0.87215501 0.65368176 2.3558998 2377573
-0.86069244 0.65759361 2.3570001 5008242
-0.5477795 0.65628797 2.3431389 9213065
-0.53575665 0.65964025 2.3429167 9081482
-0.9039681 0.68096793 2.3487501 470354
-0.5596751 0.68133008 2.3500001 9278861
-0.54821801 0.67475206 2.3450003 9081738
-0.53613156 0.67024624 2.3426876 9146762
-0.90358323 0.69351083 2.3477499 471120
-0.89533228 0.69546932 2.3485835 667729
-0.55949646 0.68881786 2.3492501 9213324
-0.54858726 0.69316787 2.3465834 9147272
-0.5369122 0.68881124 2.3405001 9014916
-0.90406436 0.71956015 2.3490002 1257807
-0.89376062 0.70670789 2.3489585 864334
-0.56149071 0.71314234 2.3504169 9410958
-0.55228525 0.70548886 2.3477499 9279626
-0.56788975 0.72757733 2.3535714 9738900
-0.56021094 0.74112773 2.3522501 9541525
-0.5489763 0.74975336 2.3438501 9278348
-0.56056821 0.76990527 2.3537502 9804180
-0.54858649 0.76464683 2.3429167 9278603
-0.5606575 0.78032261 2.354125 9739154
-0.55352628 0.78268039 2.3457501 9542288
-0.54587519 0.82097501 2.3482003 3685433
-0.53687352 0.82341117 2.3493001 1842460
-0.54913205 0.8351106 2.3520718 0
-0.53914887 0.83299327 2.35025 0
-0.54948068 0.87416428 2.3504169 0
-0.54636782 0.89126277 2.3480835 0
-0.53358656 0.89531487 2.3439002 0
-0.54716617 0.90847874 2.3499286 0
-0.53315318 0.90879184 2.3440001 0
-0.54604024 0.92800367 2.355 0
-0.53296053 0.92650288 2.3502002 0
-0.54562753 0.94423753 2.3560004 0
-0.5316835 0.94442439 2.354219 0
-0.53269601 0.95654404 2.3445001 0
-0.5480237 0.99963766 2.3524377 0
-0.53895777 0.99706751 2.349417 0
-0.55535507 1.0091009 2.3535001 0
-0.56134218 1.0363686 2.3570001 0
-0.54739207 1.070395 2.3525002 0
-0.54481637 1.0806822 2.3525002 0
-0.47561437 1.0807486 2.3415 0
-0.5435226 1.1312839 2.3543334 0
-0.54720616 1.1435207 2.353286 0
-0.53625691 1.1427482 2.3511002 0
-0.54487425 1.1553867 2.3527501 0
-0.53977978 1.1529372 2.3530002 0
-0.56491464 -0.77739394 2.3720002 5265231
-0.56138676 -0.76704687 2.3680625 5133900
-0.5543648 -0.75806141 2.36025 5133388
-0.56887329 -0.74950278 2.36255 5134413
-0.55407065 -0.7525022 2.3590002 4937293
-0.56711501 -0.72908658 2.36675 3686716
-0.55659389 -0.72147906 2.3587501 3291956
-0.56520128 -0.71016234 2.3704689 3094064
-0.55730182 -0.71723288 2.3617501 3159857
-0.56213999 -0.69937968 2.3712502 4610125
-0.85340297 0.031470593 2.3582501 3160915
-0.83901769 0.029261053 2.3582499 4935758
-0.85260266 0.038348034 2.3584168 3687251
-0.83905602 0.038838096 2.3583572 4737861
-0.84691215 0.085737415 2.3617501 4278075
-0.83723646 0.083804347 2.3618126 4475455
-0.84673285 0.098624647 2.3612502 4278330
-0.83913988 0.098644078 2.3617084 4606015
-0.84957904 0.1174729 2.3595836 4805452
-0.83911771 0.11629505 2.3606071 4670783
-0.85107642 0.13409124 2.3607502 5199190
-0.83894747 0.13475971 2.3611667 4671553
-0.84895784 0.14502861 2.36025 6120537
-0.84104872 0.14758033 2.3598127 5001539
-0.83354169 0.19665459 2.3605001 6053719
-0.85397226 0.20691738 2.3598251 6121585
-0.83819371 0.2069767 2.3605001 6316378
-0.82574463 0.20696546 2.3603749 5134669
-0.85574293 0.22068948 2.3599584 7633539
-0.58380067 0.51719022 2.3748751 6055243
-0.56721312 0.51386034 2.3635418 5263675
-0.58095604 0.52922261 2.366792 6976878
-0.56766939 0.52829528 2.36185 6911084
-0.86580473 0.55522662 2.3710001 6578499
-0.85563087 0.55536324 2.3715835 7038539
-0.57196212 0.54961091 2.3635626 7436655
-0.87002373 0.56638843 2.3707085 3886167
-0.85842311 0.56067657 2.3721251 7633514
-0.56627047 0.56645238 2.3714643 7305325
-0.55777383 0.56386524 2.3637502 7371374
-0.97516263 0.58755666 2.3655002 4808816
-0.87316221 0.58537984 2.3703847 1521239
-0.85303921 0.58743697 2.3735683 5658968
-0.83839679 0.58973026 2.3742499 4013372
-0.56498426 0.58383656 2.3742731 7305071
-0.97526562 0.59537756 2.3657501 4480883
-0.87313396 0.60253865 2.3677678 535627
-0.85360307 0.60243291 2.373167 1584183
-0.8373583 0.60276222 2.3744643 2240560
-0.56019247 0.59745377 2.3740001 7635062
-0.55177951 0.60689461 2.36025 7897464
-0.8698386 0.6167829 2.3663054 1520204
-0.85476625 0.6204946 2.372797 1782074
-0.83932251 0.61486363 2.3744166 1384226
-0.55320436 0.62123466 2.3608127 7896701
-0.86438972 0.64489222 2.367125 4809837
-0.85838968 0.63702679 2.3706002 2967379
-0.56255281 0.64093351 2.3620834 9212297
-0.55706584 0.63283098 2.3607502 8555134
-0.88768965 0.66105676 2.3601668 209241
-0.86916023 0.65965313 2.3613331 3363431
-0.85514337 0.65843719 2.3676367 2374732
-0.84239429 0.66405594 2.3708749 1454910
-0.58421212 0.66036171 2.3739064 10989991
-0.56826657 0.65844148 2.3670003 9672848
-0.9046855 0.676687 2.3606877 339796
-0.89067578 0.674263 2.3612344 602968
-0.87346667 0.67443854 2.3636501 2245989
-0.85511237 0.67339998 2.3672752 2571599
-0.8421424 0.67276889 2.3687 2044224
-0.58389908 0.67294472 2.3717504 11121834
-0.56877148 0.67419231 2.3664253 9411216
-0.90341723 0.68702823 2.3607502 536403
-0.88985974 0.69261718 2.3636668 799317
-0.87473506 0.68739253 2.3727002 2771813
-0.88946044 0.71046275 2.3614376 1126481
-0.5724225 0.71522522 2.3601251 10068121
-0.89345664 0.72248393 2.3755002 1257811
-0.58126152 0.73535204 2.3751252 11318955
-0.57080895 0.74827009 2.3749168 9673109
-0.56544846 0.7678864 2.3633752 9803924
-0.58404911 0.78766328 2.3653502 11384751
-0.56958544 0.7837407 2.3644376 10133912
-0.60086113 0.79607838 2.3703752 11251627
-0.58414757 0.79710656 2.3657501 11581106
-0.56659383 0.80029619 2.3660002 9804694
-0.55716419 0.80072397 2.361167 9738896
-0.58006853 0.82453477 2.3702502 10922410
-0.56688547 0.81607056 2.3657501 9935254
-0.55677092 0.81047738 2.3595002 9673362
-0.58272535 0.82980466 2.3705001 0
-0.56255293 0.83846396 2.3730001 0
-0.58116978 0.86244565 2.3747501 0
-0.56681913 0.85626411 2.37345 0
-0.5517211 0.85451043 2.3600001 0
-0.58055794 0.87191123 2.3722501 0
-0.56662327 0.87332076 2.37045 0
-0.55315298 0.86707377 2.3661251 0
-0.56041288 0.89030558 2.3694377 0
-0.55913055 0.90975189 2.3695002 0
-0.55762631 0.92797375 2.3631253 0
-0.54998136 0.95917863 2.363625 0
-0.56356001 1.00166 2.3663125 0
-0.55062097 0.99392557 2.366375 0
-0.56519276 1.010976 2.365917 0
-0.56630796 1.0355726 2.3669584 0
-0.56767601 1.0512249 2.36725 0
-0.55724281 1.0486737 2.3615 0
-0.55883563 1.0697944 2.3682501 0
-0.542934 1.128626 2.36675 0
-0.53780824 1.1339206 2.3670001 0
-0.53786504 1.1392162 2.3672502 0
-0.58257693 -0.80099887 2.3805001 5135441
-0.57903111 -0.78205031 2.3830502 5134415
-0.57167095 -0.77952117 2.3785002 5068367
-0.58121884 -0.76399338 2.381036 5199185
-0.57033467 -0.76792741 2.3801668 5199438
-0.58786476 -0.74800503 2.3808 5133901
-0.58070934 -0.73085392 2.3799448 3950397
-0.57110012 -0.72419608 2.3761251 3357235
-0.57958502 -0.71204287 2.3789167 3160114
-0.5877288 -0.69682902 2.38025 3620925
-0.59437239 0.51700473 2.3860002 6579780
-0.58788222 0.52889228 2.3808751 6911592
-0.58526176 0.54791588 2.3843334 7305328
-0.8661654 0.57273465 2.3791251 8094071
-0.85780317 0.5678606 2.3805001 8487798
-0.58144873 0.56745303 2.385036 7173997
-0.86854351 0.5777846 2.3785002 8027767
-0.85782111 0.57932264 2.3805499 8356729
-0.83547944 0.59134424 2.3807502 3552563
-0.58229041 0.58554673 2.3812501 7699576
-0.57107008 0.59276217 2.3760002 8160387
-0.83160961 0.60403502 2.3846252 5993056
-0.82685071 0.60759443 2.3935001 6188368
-0.5807665 0.60247135 2.3791788 9477010
-0.56696898 0.60427648 2.3775001 8687749
-0.83579874 0.6211406 2.3874722 2502952
-0.82639009 0.61771631 2.3921669 1052431
-0.5943101 0.6264922 2.3857501 10594215
-0.58302367 0.62154871 2.3806729 9936534
-0.56692559 0.62126714 2.3784544 8489349
-0.85295546 0.6410358 2.3840628 727850
-0.84146756 0.63857317 2.385417 1385766
-0.59884316 0.64139849 2.3830001 10988963
-0.58521312 0.63930035 2.3781734 10398112
-0.57018888 0.63868725 2.3777502 9082507
-0.854222 0.65446824 2.3850503 793389
-0.84279585 0.65805453 2.3867083 990504
-0.59769136 0.65576643 2.3784168 11252138
-0.58591443 0.65175235 2.3764169 11120806
-0.57107008 0.64990664 2.3760002 9017480
-0.59803975 0.67453492 2.3850002 11384490
-0.58871555 0.68344122 2.3842502 11384493
-0.87259835 0.69522637 2.3782001 4216421
-0.85723621 0.69359839 2.3860962 4870238
-0.5977667 0.69267428 2.3891251 11450283
-0.58374929 0.69178742 2.3822143 10660770
-0.8857879 0.71101826 2.3768573 667728
-0.87381488 0.70888728 2.3786752 1256525
-0.85952282 0.70671856 2.3823929 6187380
-0.60009968 0.71062189 2.3880002 11451311
-0.58844537 0.7113713 2.3808057 11318699
-0.88862878 0.72278804 2.3765001 1192530
-0.59561789 0.72197026 2.391 11517103
-0.58635879 0.72805661 2.3852501 11318953
-0.58626062 0.74666172 2.3863928 11516079
-0.58088446 0.756423 2.3842502 10727075
-0.57136279 0.76285511 2.3815503 9672337
-0.61572248 0.78885728 2.3877501 11055782
-0.60397387 0.78606695 2.3852501 11252139
-0.58744872 0.7834062 2.3791251 11187884
-0.58021426 0.80762029 2.3815 11055017
-0.57233191 0.80753559 2.3812501 9540757
-0.58352745 0.81745851 2.3817189 11185837
-0.57233191 0.81534517 2.3812501 9869205
-0.58797485 0.82836127 2.3812501 10990505
-0.56723666 0.84415776 2.3817501 0
-0.59524429 0.85735357 2.3895001 0
-0.58183974 0.85561383 2.3817501 0
-0.57065368 0.85101157 2.3815002 0
-0.58710158 0.87326026 2.3830001 0
-0.57833439 0.88684064 2.3845 0
-0.56993747 0.89376652 2.3821251 0
-0.56912208 0.90966296 2.3896668 0
-0.57103693 0.92679876 2.386719 0
-0.57845569 0.94699436 2.3850002 0
-0.56815392 0.94548416 2.3828437 0
-0.57836473 0.95727378 2.384625 0
-0.56757671 0.96190149 2.3831754 0
-0.55692267 0.96934181 2.3822501 0
-0.58188015 0.98199415 2.391917 0
-0.56801808 0.98185444 2.390521 0
-0.55305713 0.98216158 2.3880835 0
-0.60154468 1.0054237 2.3937502 0
-0.56445819 0.99798423 2.3838124 0
-0.57736427 1.0154728 2.3805001 0
-0.56622446 1.0245895 2.3775001 0
-0.57359374 1.0310805 2.3864999 0
-0.57223141 1.0744023 2.3880835 0
-0.56886405 1.086814 2.3885834 0
-0.56426293 1.1037112 2.3912501 0
-0.55402207 1.1041728 2.3922501 0
-0.59935457 -0.81483972 2.4060001 3755326
-0.60292304 -0.79899073 2.4018438 4675145
-0.59003532 -0.80062854 2.3981001 4806734
-0.60183501 -0.78418738 2.4027503 5133902
-0.59093648 -0.78580165 2.4003334 5068622
-0.6039418 -0.76512748 2.4032857 5068628
-0.59328353 -0.77171147 2.40275 5395796
-0.60105133 -0.7467351 2.4001501 4871499
-0.59235764 -0.72854573 2.3990002 3488566
-0.60121357 -0.70828485 2.4050002 2962738
-0.59198731 -0.71236509 2.3975003 3160625
-0.61349815 0.52517629 2.3995001 6710351
-0.6022076 0.52965665 2.3990002 6713698
-0.6149683 0.55798817 2.4052501 6845028
-0.60339665 0.55116254 2.4053001 6910569
-0.59257364 0.55412197 2.3998752 7174768
-0.61767691 0.56857502 2.4055417 7041130
-0.60421193 0.5682959 2.4043608 7107692
-0.59344816 0.56807214 2.4034169 7304815
-0.62052989 0.58455956 2.4063892 7699833
-0.60314721 0.58458716 2.4022002 7436658
-0.59285146 0.57800066 2.401 7306097
-0.83298254 0.60682833 2.4112501 2768429
-0.63201457 0.60651374 2.4100001 9673877
-0.62154788 0.60003424 2.4077814 9411473
-0.60488671 0.59945947 2.4070501 9083020
-0.59356129 0.60759985 2.4038751 9608594
-0.82555717 0.62102467 2.405 4277317
-0.63247347 0.61222726 2.4117501 9805461
-0.62712747 0.61216384 2.4115002 9739668
-0.59817129 0.62268639 2.4012501 9740696
-0.83530301 0.63930184 2.4077919 1186834
-0.82636082 0.63976163 2.4111874 3620151
-0.6161828 0.64339876 2.4100001 11317671
-0.60693955 0.6382829 2.4026501 10922659
-0.83720517 0.65608352 2.4082086 2240032
-0.82322842 0.65597236 2.4078126 3686713
-0.8095898 0.65770221 2.4045 4871240
-0.61647046 0.65160716 2.4111252 10857118
-0.60902554 0.65717924 2.4025834 11120292
-0.84073544 0.67101425 2.4082501 5397842
-0.60982823 0.67382592 2.40575 11450539
-0.61093724 0.68822467 2.4101253 11712684
-0.6133064 0.71906573 2.3987501 11451058
-0.60780036 0.71614528 2.3977501 11516850
-0.61775762 0.73112768 2.4014645 11383982
-0.60369414 0.73049837 2.3996875 11516594
-0.61919641 0.74605805 2.4012225 11120298
-0.6025731 0.74670112 2.3999252 11646899
-0.6180228 0.7660265 2.4034722 11186091
-0.60422885 0.76556551 2.4025228 11646643
-0.58703518 0.76677382 2.395643 11120299
-0.61999357 0.7825011 2.4043126 10988964
-0.60412043 0.78108543 2.404 11646642
-0.58804995 0.77926201 2.3957083 11252652
-0.61784989 0.8072989 2.3960001 11251624
-0.61247545 0.81236809 2.3955002 11448235
-0.59923661 0.82528973 2.3950002 11251117
-0.60328054 0.83692676 2.4058752 8422276
-0.60518843 0.84828466 2.4082501 0
-0.59732014 0.8708356 2.3978336 0
-0.60239261 0.89322829 2.4111249 0
-0.58221501 0.89803994 2.4005001 0
-0.61847091 0.91424263 2.4086251 0
-0.60461718 0.90886039 2.4094794 0
-0.58219624 0.90810806 2.4040003 0
-0.636168 0.93156397 2.40575 0
-0.62556708 0.93146724 2.4055002 0
-0.60279381 0.92238402 2.4092503 0
-0.58227634 0.92857915 2.4007499 0
-0.58634698 0.94305867 2.4002001 0
-0.58716559 0.95527589 2.39925 0
-0.60119164 0.98296171 2.4028127 0
-0.59046876 0.9826299 2.402 0
-0.6145848 1.0043683 2.4037502 0
-0.60182071 0.99888468 2.4000626 0
-0.5864926 0.99347854 2.3965001 0
-0.59112298 1.010763 2.3940001 0
-0.59112298 1.0264659 2.3940001 0
-0.58276075 1.0774986 2.40275 0
-0.57749939 1.0880054 2.40275 0
-0.61407346 1.1584444 2.4017501 0
-0.60368013 1.1560595 2.4022503 0
-0.61484891 -0.81528974 2.4151251 4675143
-0.60688472 -0.81260759 2.4150002 4214855
-0.61674851 -0.80143678 2.4163501 4937803
-0.61341929 -0.78251296 2.4199169 5068115
-0.61634374 -0.76698804 2.421 4806480
-0.61299682 -0.7502532 2.4182501 4739402
-0.60629541 -0.74187249 2.4196668 4608582
-0.62110406 -0.72578204 2.4292502 3225649
-0.60565293 -0.7277087 2.4161072 3356726
-0.63279629 -0.70953709 2.4281878 3093552
-0.62034804 -0.71030164 2.4262776 2897201
-0.60927677 -0.71726644 2.414 3159857
-0.63571101 -0.69811124 2.4281502 3816508
-0.6207211 -0.70011955 2.4277501 3884094
-0.6316784 0.5316329 2.4290001 7038021
-0.62191135 0.53288156 2.4185836 6776918
-0.61179274 0.53879434 2.4135001 6910310
-0.63076824 0.55738282 2.4255002 6714212
-0.62122124 0.54943746 2.42555 6778982
-0.63031316 0.56228 2.4237502 6778983
-0.62800258 0.5670889 2.4216669 6844520
-0.62823266 0.57626963 2.41575 7368816
-0.83861023 0.60180575 2.41225 2238767
-0.61701375 0.60733169 2.4132502 9609104
-0.60829091 0.60565764 2.4135835 9411725
-0.83353812 0.6164158 2.4282501 5332561
-0.82265651 0.62547457 2.4181499 3422514
-0.78180188 0.62075448 2.4244585 3222049
-0.77382499 0.62074357 2.4244168 4077091
-0.6316784 0.6272279 2.4290001 9938584
-0.61895454 0.61877275 2.4167001 9739669
-0.60514307 0.61923319 2.4150834 9871768
-0.81708437 0.63757104 2.4145555 2763306
-0.80309105 0.64174169 2.4186563 4870998
-0.78224611 0.63784975 2.4267504 3814439
-0.77393138 0.63143194 2.4247501 4011041
-0.63187349 0.63804656 2.4297502 10464161
-0.62115002 0.63661432 2.4268126 11053984
-0.81594533 0.65121096 2.4129167 3488559
-0.79975033 0.65228891 2.4185627 5135700
-0.7869572 0.65056908 2.4289 4608578
-0.62200248 0.65883362 2.4203002 10791838
-0.83522803 0.67189896 2.4177501 923145
-0.62311697 0.67487895 2.42465 10923683
-0.63983047 0.69490325 2.4263053 10067865
-0.62287766 0.68748802 2.42925 11055525
-0.61153924 0.69681376 2.4125001 11909806
-0.63717759 0.70841861 2.4296875 10462111
-0.6169818 0.71546006 2.413125 11319471
-0.61164492 0.70748472 2.4129169 11515823
-0.63177598 0.73090154 2.4293752 11119017
-0.62523234 0.72902983 2.4143753 11120555
-0.63645118 0.75018185 2.4201667 10264986
-0.63931221 0.76566809 2.4194548 10264728
-0.62886119 0.76718313 2.4181669 10594720
-0.65261781 0.78880292 2.4277501 10002074
-0.63978952 0.78345901 2.4194446 10264986
-0.63821256 0.79895008 2.4215 10331296
-0.62758255 0.80783468 2.4132502 11055530
-0.63024807 0.82186347 2.4235001 10989737
-0.6201055 0.82162082 2.415 11251883
-0.61882889 0.83665884 2.4203217 11186090
-0.61147588 0.82859671 2.41225 11185580
-0.61454284 0.85079372 2.4191251 0
-0.61403185 0.87442225 2.4223335 0
-0.60775036 0.87772429 2.4131875 0
-0.6204254 0.89197665 2.419667 0
-0.60975742 0.88843232 2.4124167 0
-0.63128829 0.91344827 2.4275 0
-0.62222254 0.90682018 2.4211502 0
-0.63135332 0.91885048 2.4277501 0
-0.59042865 0.92893583 2.4125834 0
-0.63998014 0.9406743 2.4201667 0
-0.62953293 0.94266516 2.4207501 0
-0.59851784 0.94238222 2.41325 0
-0.63054067 0.99718708 2.4246252 0
-0.62236255 0.99788827 2.4135001 0
-0.62545693 1.0161078 2.4254999 0
-0.62044942 1.0762954 2.4266877 0
-0.60983747 1.0776495 2.4267502 0
-0.62055087 1.0884109 2.4270833 0
-0.60203338 1.0896257 2.4274249 0
-0.58554995 1.0879343 2.4142501 0
-0.63141841 1.0994391 2.4280002 0
-0.6206575 1.0992126 2.4275 0
-0.60996312 1.0990995 2.4272501 0
-0.58439964 1.1029662 2.4240835 0
-0.65216768 -0.81234252 2.4460001 5265485
-0.64036286 -0.81628501 2.4418001 5069131
-0.62713313 -0.81832933 2.4320002 4741960
-0.6501013 -0.80177891 2.4382501 5265231
-0.63693047 -0.80147374 2.4312813 5199691
-0.62683231 -0.80199051 2.4308336 5069387
-0.64992964 -0.78268021 2.4335999 4937551
-0.63783318 -0.78382415 2.4321873 5002830
-0.62451053 -0.78381371 2.4321561 5068371
-0.65178412 -0.76764917 2.4365501 5003087
-0.63839906 -0.76655513 2.4343438 5003598
-0.62633282 -0.76713252 2.4340627 4937549
-0.63297868 -0.74981779 2.434 5068106
-0.6218518 -0.7465961 2.4321668 4673864
-0.63304371 -0.7259447 2.4342501 3686194
-0.62148809 -0.73287266 2.4307501 3752505
-0.64212787 -0.7111783 2.438375 3027758
-0.63567668 0.53807664 2.4341252 6908243
-0.63519222 0.55078793 2.4373751 6713442
-0.65226769 0.57020271 2.4463751 6975848
-0.64300418 0.56644553 2.4417086 6779237
-0.64192826 0.5831793 2.441 7238768
-0.83585477 0.60481948 2.4350002 2632493
-0.81836152 0.60404688 2.4406817 2959403
-0.80133796 0.60427308 2.4435558 6052695
-0.78445244 0.60515684 2.4409642 6318681
-0.63932472 0.60020322 2.4378753 9279123
-0.83227187 0.61455911 2.4349167 4673610
-0.82147193 0.61920077 2.4415834 3685946
-0.7997995 0.61613739 2.4429376 4080957
-0.78366089 0.61368614 2.4385002 4738107
-0.64149588 0.62424868 2.4339502 9739669
-0.81452709 0.63410115 2.4350002 5989988
-0.80611396 0.63909698 2.4337502 5529948
-0.63517249 0.63735759 2.4321878 10201756
-0.63935679 0.67705661 2.442075 10069144
-0.65315753 0.69275016 2.4446876 10199960
-0.64311326 0.68935186 2.4421251 9937302
-0.65476304 0.71174586 2.4456875 10199192
-0.63671988 0.71563363 2.4346666 10856611
-0.62661737 0.71780735 2.4300001 11515568
-0.64024222 0.72542948 2.4413502 10592930
-0.62661737 0.72312045 2.4300001 11449775
-0.64271379 0.74509573 2.4440002 10396574
-0.6531713 0.76869434 2.4397502 10198936
-0.6572333 0.7831701 2.4350002 10133656
-0.65627182 0.79797417 2.4314375 10002330
-0.64796829 0.80289829 2.4302502 10069152
-0.63463175 0.8347367 2.4301252 10660000
-0.62668186 0.84540683 2.4302502 11252394
-0.63348579 0.89643508 2.44625 0
-0.62295824 0.88487154 2.4365001 0
-0.63603437 0.90962023 2.44575 0
-0.64119321 0.92003345 2.4450002 0
-0.6532107 0.94476843 2.4398751 0
-0.64136845 0.95373398 2.4355001 0
-0.63881111 1.0018299 2.4359169 0
-0.63310874 1.0118939 2.4345002 0
-0.63919073 1.0853834 2.4441669 0
-0.61404669 1.1118003 2.4435 0
-0.59941036 1.1075583 2.4420002 0
-0.59215915 1.1108904 2.4415002 0
-0.63699371 1.129185 2.4425833 0
-0.59215915 1.1162285 2.4415002 0
-0.64304709 1.1377558 2.441875 0
-0.66430265 -0.84624296 2.4512501 3425337
-0.66816449 -0.83499062 2.4655001 4871505
-0.65755385 -0.83527261 2.4521003 4936780
-0.64252114 -0.83110172 2.4500625 4806219
-0.65829551 -0.81915981 2.4568503 5068366
-0.64505553 -0.82421625 2.4495001 5003596
-0.66101837 -0.8005321 2.4590001 4871246
-0.66386431 -0.78352529 2.4562502 4871247
-0.66263127 -0.76970649 2.4549999 5068366
-0.65523416 -0.74477512 2.4575002 4805449
-0.64440572 -0.74086243 2.4572501 4739400
-0.65541196 -0.73038918 2.4581668 3753016
-0.64449316 -0.73021609 2.4575834 3686706
-0.66649324 -0.7092278 2.4593334 2766123
-0.65733242 -0.71261114 2.4586389 2962222
-0.66640294 -0.69837862 2.4590001 3159606
-0.65525371 -0.69413483 2.4575715 4541509
-0.66912657 0.55330372 2.4624166 6974820
-0.65477228 0.54946679 2.4582813 6909280
-0.64243889 0.54956383 2.4497499 6778978
-0.67181551 0.56499606 2.4615626 6910056
-0.65766311 0.56348962 2.4598751 6909798
-0.66674173 0.57612669 2.4602501 6910310
-0.65561247 0.58396894 2.4555418 7172206
-0.84443682 0.60296118 2.46 10395797
-0.6491034 0.60165399 2.4546669 9147277
-0.81780624 0.62565148 2.4488127 4737867
-0.80452281 0.6251514 2.45 4279106
-0.77953166 0.62425953 2.4591668 3881254
-0.65368998 0.62096262 2.4567502 9739670
-0.8159402 0.63441467 2.4499168 5529944
-0.80340356 0.63643932 2.4498572 4674119
-0.77725983 0.6385265 2.4519999 3749921
-0.65627038 0.63920075 2.4568892 9871257
-0.65241045 0.65057433 2.457 10133660
-0.64316005 0.6520685 2.4525001 9740952
-0.6532079 0.67826343 2.46 9938070
-0.64623618 0.67123377 2.454 10134423
-0.66128713 0.69439751 2.46 10134680
-0.66796124 0.73346138 2.4647501 10264729
-0.65718657 0.73137766 2.4622815 10330266
-0.67124069 0.74554324 2.4591947 9936532
-0.65697527 0.74724293 2.458523 10133399
-0.67312574 0.75990921 2.4573336 10002069
-0.66107869 0.76398402 2.457 10002326
-0.66718209 0.77836037 2.461875 10198933
-0.66518342 0.78407705 2.4545002 10198936
-0.67194116 0.7991333 2.4595628 10198936
-0.67103624 0.81148809 2.4562502 9870743
-0.66555607 0.81404889 2.4558752 9739670
-0.64859658 0.86395943 2.4527502 0
-0.64905936 0.86994243 2.4545002 0
-0.63776934 0.87367207 2.4524167 0
-0.62672949 0.87682968 2.4512501 0
-0.63703221 0.88926166 2.4634168 0
-0.62660164 0.88468844 2.4507501 0
-0.64499575 0.9147346 2.4595001 0
-0.65454328 0.92635763 2.45895 0
-0.64486468 0.91992515 2.4590001 0
-0.63759869 0.96583503 2.4488218 0
-0.63517874 0.97700232 2.4493334 0
-0.64197999 0.99609566 2.4480002 0
-0.65235776 1.0143949 2.4534168 0
-0.64128327 1.0228113 2.4521668 0
-0.6527096 1.0270879 2.4581251 0
-0.63962597 1.0319561 2.452667 0
-0.64998484 1.0700297 2.4580002 0
-0.6571669 1.0837461 2.4647501 0
-0.65211189 1.1120613 2.4558752 0
-0.65568763 1.1262066 2.4560959 0
-0.63929027 1.1233864 2.4556875 0
-0.61578357 1.1252007 2.4611251 0
-0.60193306 1.1257145 2.4552002 0
-0.67710549 -0.85336065 2.4718335 3489846
-0.67220229 -0.83416891 2.4737501 5199440
-0.67042285 -0.81617928 2.4738333 4805966
-0.67246169 -0.79871225 2.47335 4805710
-0.67606753 -0.78398758 2.4746668 4937549
-0.67350018 -0.76656508 2.4751878 4871756
