# .PCD v0.7 - Point Cloud Data file format
VERSION 0.7
FIELDS x y z
SIZE 4 4 4
TYPE F F F
COUNT 1 1 1
WIDTH 1483
HEIGHT 1
VIEWPOINT 0 0 0 1 0 0 0
POINTS 1483
DATA ascii
-0.29618797 0.31624833 1.7322502
-0.28207728 0.31810254 1.7339876
-0.26133767 0.32032403 1.7397144
-0.24244742 0.32178172 1.73975
-0.23164688 0.32240468 1.7352501
-0.20490485 0.31754011 1.7357649
-0.19224496 0.31761086 1.7348754
-0.16611785 0.31612414 1.7363461
-0.15342806 0.31553793 1.7360129
-0.13724987 0.31619808 1.7359546
-0.11695755 0.3135536 1.7344584
-0.099596485 0.31768176 1.735219
-0.073398106 0.32029346 1.7448335
-0.061333925 0.31409174 1.7334065
-0.044900022 0.31208345 1.7398794
-0.032081161 0.30917844 1.7370836
-0.0063086911 0.31184465 1.737309
0.006488672 0.31700411 1.736645
0.028843584 0.31704053 1.739275
0.046071891 0.31693494 1.7414546
0.062512517 0.31285897 1.7405958
0.07995744 0.31438622 1.7344048
0.098267987 0.31764424 1.7382587
0.11495593 0.31400517 1.7349843
0.13708766 0.31821144 1.7339774
0.15196054 0.31637406 1.7317499
0.1703493 0.31086126 1.7356251
0.18932343 0.31269562 1.7393754
0.20750155 0.31474429 1.7373089
0.22214957 0.3119539 1.7373409
0.24922119 0.31350631 1.7319288
0.2607421 0.31543574 1.7318921
0.27846894 0.31514153 1.7316517
0.29635546 0.31540257 1.7375126
0.31506959 0.30882776 1.7378197
0.33159155 0.31240556 1.7402085
0.35356912 0.31155396 1.735014
0.36680683 0.3077468 1.7290001
0.38806134 0.31239459 1.7338864
0.40807742 0.31464717 1.7384241
0.42068639 0.31106812 1.7343754
0.44206226 0.31085449 1.7368463
0.46154824 0.31138897 1.7402
0.47356394 0.31420091 1.7424773
0.50190628 0.31734461 1.7298502
0.50731844 0.31449676 1.7296873
0.53626287 0.30973232 1.745625
0.54893315 0.3116554 1.7401112
0.56115955 0.30738133 1.732375
0.58428431 0.3095656 1.7365
0.59939885 0.31071544 1.73155
0.62820995 0.30687118 1.7295001
0.63926685 0.30882719 1.7382145
-0.79238731 0.32967585 1.743
-0.77875584 0.33041734 1.7392752
-0.76557314 0.33409247 1.7403625
-0.74878252 0.3342042 1.7428595
-0.73625976 0.32643214 1.74125
-0.70338017 0.32859218 1.7296251
-0.69441396 0.32715687 1.7327501
-0.67742151 0.32889524 1.7379855
-0.65488559 0.33233315 1.7389091
-0.63976496 0.32976437 1.7379701
-0.62168288 0.32985392 1.7352716
-0.60383391 0.32950139 1.73228
-0.58347136 0.3279258 1.7318436
-0.56643045 0.33410674 1.7380251
-0.5486412 0.33187175 1.7368683
-0.52924782 0.33080253 1.7324301
-0.51336002 0.33196878 1.7304165
-0.49488747 0.33113694 1.7312156
-0.47787631 0.33525988 1.7341946
-0.45058325 0.32413566 1.7290001
-0.43948409 0.33205184 1.7366184
-0.4243747 0.33132389 1.7336364
-0.40230703 0.32965904 1.7364109
-0.38887808 0.32856575 1.7317877
-0.37679884 0.32715225 1.7399168
-0.31290692 0.32580107 1.7308637
-0.29553166 0.32627532 1.729393
-0.28418601 0.326886 1.72825
-0.22433533 0.32522532 1.7348125
-0.18093263 0.32544792 1.7360001
-0.17363726 0.32724574 1.7329547
-0.1559515 0.32481053 1.7326
-0.097273536 0.33181071 1.7333159
-0.080550015 0.32989031 1.7368479
-0.069628216 0.32818201 1.73175
0.013590205 0.32530734 1.7352501
0.029332541 0.33056828 1.7360801
0.044110429 0.33037582 1.7373694
0.055748463 0.32577601 1.7377501
0.085830823 0.32558176 1.7290001
0.095661543 0.32723498 1.7311965
0.14244556 0.3260996 1.7317501
0.14673653 0.32598191 1.7311251
0.501948 0.3268387 1.728
0.5062831 0.3268387 1.728
0.62157381 0.33069813 1.7280277
0.64620292 0.33182821 1.7390001
0.65230203 0.33726379 1.7397499
-0.76191628 0.34529203 1.7313654
-0.75377762 0.34562713 1.728
-0.52348107 0.34622717 1.7310001
-0.5178811 0.34669736 1.7302501
-0.47957718 0.34448731 1.732778
-0.43467879 0.34438103 1.7290001
0.64629579 0.34351331 1.7392501
0.65551412 0.34762478 1.741107
-0.85567141 0.4240391 1.7295001
0.69917858 0.4197602 1.72975
0.71347839 0.42249089 1.7314501
0.73081976 0.42648664 1.7454376
0.74349135 0.42955169 1.7420834
0.78447592 0.43130907 1.7296501
0.79970765 0.42754829 1.7305312
0.8181892 0.42825365 1.7323395
0.83323097 0.42823812 1.7347918
0.85064554 0.42587581 1.7441972
0.71922821 0.43353134 1.7327501
0.72869706 0.43564126 1.7397814
0.73999965 0.43376777 1.7424376
0.76514316 0.43985048 1.7391251
0.78476554 0.43561697 1.7283751
0.79334962 0.43608221 1.7285001
0.82028389 0.44018269 1.7321439
0.83505332 0.44100338 1.7332221
0.85296959 0.44507542 1.7418125
0.87007463 0.44263619 1.7343473
-0.96027654 0.46085346 1.7401875
-0.94504195 0.46105891 1.736277
-0.92815632 0.46152246 1.7359743
-0.90856618 0.46314374 1.7360514
-0.89174134 0.46156156 1.7361668
-0.87828302 0.45370841 1.7341667
0.85470623 0.45528802 1.7342187
0.86571097 0.45251036 1.7388752
-0.95706671 0.47546178 1.7324002
-0.94449663 0.47280008 1.7332621
-0.93096352 0.4727411 1.734375
-0.90510917 0.47315094 1.7345456
-0.89678997 0.47454688 1.7357956
0.4295994 0.28662673 1.7531668
0.44171575 0.28436828 1.7579739
0.45090026 0.28578642 1.7600001
-0.70380998 0.29961029 1.7547499
-0.69743496 0.30322975 1.7587501
-0.41580296 0.30332142 1.75925
-0.41179872 0.30362314 1.761
-0.38804406 0.30199891 1.7601252
-0.25453681 0.30438548 1.75975
-0.24314336 0.30436727 1.7553959
-0.22415332 0.30572018 1.7561251
-0.20952778 0.30580723 1.7566252
-0.16387349 0.30411512 1.7553751
-0.15730904 0.30479527 1.7542002
-0.059039462 0.30190319 1.7558929
-0.046210334 0.30190837 1.7578751
-0.025156045 0.30257168 1.7549378
-0.009728685 0.30232447 1.7535138
0.0083958767 0.30313551 1.7600836
0.026388656 0.30257353 1.7628078
0.049137343 0.29836267 1.7612498
0.063621953 0.29635265 1.7603143
0.078173473 0.29922846 1.7600626
0.13754818 0.30127257 1.7542503
0.15202405 0.30389506 1.753139
0.16583863 0.3043991 1.7587001
0.20956972 0.29974827 1.7615999
0.22305182 0.3006528 1.7595387
0.2443579 0.29918531 1.7522665
0.26030862 0.29961565 1.7509197
0.27884492 0.30186257 1.7593333
0.29721609 0.30251941 1.7591053
0.31388277 0.30170017 1.7583873
0.33274716 0.29966414 1.7593876
0.35231 0.29974034 1.7569001
0.36954761 0.29428995 1.7562107
0.38575062 0.29925248 1.7595627
0.40465665 0.30396691 1.7573124
0.42264339 0.29340464 1.7527354
0.44311464 0.29606625 1.7511443
0.45772064 0.29823807 1.7526797
0.47832277 0.30178005 1.7598057
0.49691734 0.29956457 1.7523439
0.51342386 0.29758435 1.7481542
0.53113651 0.29870647 1.7488519
0.55021393 0.30389926 1.7512778
0.56635642 0.29601347 1.7552034
0.58571738 0.29687446 1.7522947
0.60407847 0.29861885 1.7550967
0.61829066 0.2996242 1.7578825
-0.77785379 0.3216472 1.7629167
-0.7657119 0.32258615 1.7520001
-0.74629015 0.31928179 1.7545534
-0.73413318 0.31260541 1.7535626
-0.69254231 0.31342867 1.7574998
-0.67399347 0.3165614 1.7500888
-0.66249377 0.31857142 1.754125
-0.63732886 0.31554362 1.7546501
-0.62343228 0.31982377 1.7538333
-0.6001004 0.32187685 1.7561252
-0.59185588 0.32185024 1.7600002
-0.56738973 0.32121274 1.7561592
-0.54960883 0.31837732 1.7611595
-0.53145206 0.32130721 1.7587501
-0.51480734 0.32125193 1.7607501
-0.48920903 0.31841677 1.7598
-0.48033109 0.31722146 1.757875
-0.45190579 0.31821328 1.7635
-0.43710792 0.32058787 1.7535555
-0.42229691 0.31606779 1.7560439
-0.40676412 0.31585386 1.7585381
-0.38651142 0.30913621 1.7578676
-0.36865637 0.31568182 1.7562308
-0.35207078 0.31510976 1.7593542
-0.33414486 0.31283 1.7630833
-0.31473553 0.31503996 1.7562363
-0.2968269 0.31081167 1.7517084
-0.27756697 0.31656405 1.755125
-0.25976562 0.31507069 1.7552623
-0.24370143 0.31470779 1.7513382
-0.22527206 0.3155129 1.7534227
-0.2077176 0.31193805 1.7549168
-0.189339 0.31643268 1.750393
-0.16764215 0.30882415 1.7487501
-0.14716153 0.31030223 1.7521502
-0.13469999 0.3133857 1.7579287
-0.11549684 0.31309387 1.7562917
-0.096910238 0.31619543 1.7512666
-0.079751015 0.31753594 1.7505528
-0.067609899 0.31127983 1.7496427
-0.039183859 0.30624247 1.759125
-0.031060617 0.30661398 1.7570626
0.010332004 0.31281549 1.7569169
0.025052547 0.3106111 1.758917
0.045275144 0.30876091 1.7600669
0.060870975 0.30636215 1.7598126
0.084859617 0.30819303 1.75685
0.097459972 0.31130606 1.756175
0.11764781 0.31216168 1.7569644
0.13513246 0.31196696 1.7483499
0.15363398 0.31007957 1.748559
0.17060363 0.30842665 1.7506667
0.18848808 0.3101171 1.7560713
0.20808178 0.30909881 1.7568947
0.22112586 0.30947819 1.7566458
0.264606 0.30862778 1.7488215
0.28127381 0.30792764 1.7535228
0.29535833 0.31124401 1.756219
0.3179962 0.30694649 1.7575417
0.33571073 0.30897883 1.757953
0.34884131 0.31076461 1.7569668
0.38906482 0.30828449 1.7578652
0.40222183 0.31036484 1.7514167
0.41516423 0.30756071 1.7582501
0.4465256 0.30857736 1.7515001
0.46035179 0.30766624 1.7484063
0.53174376 0.30780697 1.7465357
0.55190414 0.31323901 1.748925
0.56019783 0.30939811 1.7520001
0.59200943 0.31133682 1.7464375
0.60183364 0.30931535 1.7473956
0.61462986 0.31024224 1.7518002
-0.81251872 0.33928481 1.7550001
-0.80362099 0.33374059 1.7567501
-0.78691542 0.32659158 1.7617501
-0.75929153 0.32762149 1.75545
-0.75097299 0.32840636 1.7517918
-0.67222446 0.32788011 1.746577
-0.66089392 0.32830977 1.7485294
-0.61292475 0.32607418 1.7550001
-0.60852194 0.32607418 1.7550001
-0.58178633 0.32807487 1.7533931
-0.56647742 0.32781997 1.7528028
-0.55071133 0.32727328 1.7591966
-0.53767961 0.32672447 1.7585001
-0.50662112 0.32608604 1.7630001
-0.49474445 0.32750422 1.7537142
-0.48204455 0.33100805 1.750047
-0.43463466 0.32590896 1.74625
-0.42929637 0.32710934 1.7468126
-0.40799934 0.32701588 1.7463126
-0.2250659 0.32547963 1.7517999
-0.18103614 0.32533097 1.751
-0.17527917 0.32551679 1.7520001
-0.091493845 0.32600209 1.7467501
-0.083349049 0.32576674 1.7466071
0.54967624 0.3244949 1.7465001
-0.81193995 0.34491035 1.7537501
-0.83119416 0.36862442 1.7572502
-0.85465878 0.40754405 1.7620001
0.85589772 0.41062194 1.7547729
-0.86739135 0.42494908 1.7551666
-0.86254007 0.42154413 1.7552501
0.73566294 0.42312884 1.7582
0.74594826 0.42297587 1.7551694
0.76350552 0.428855 1.7517145
0.79010302 0.43175903 1.7550001
0.79997867 0.42946225 1.7501252
0.81925172 0.42871338 1.75455
0.83583671 0.42894551 1.7555001
0.85740322 0.42047668 1.7508594
0.87265801 0.42866609 1.7544039
0.8894608 0.42689055 1.7606721
-0.96985251 0.44872251 1.7582084
-0.87819445 0.44347245 1.7572
0.74381542 0.43252742 1.74625
0.76899177 0.43550047 1.7503752
0.78001678 0.4401463 1.7483574
0.79685611 0.4335801 1.7505001
0.86076152 0.43258938 1.7465001
0.87306952 0.43663323 1.7470971
0.88545853 0.43470246 1.7491251
-0.96303391 0.45338711 1.7565147
-0.94501382 0.45412371 1.7535001
-0.92643631 0.46084005 1.7539501
-0.90672672 0.45655355 1.754425
-0.89284408 0.45361337 1.7552023
-0.87993741 0.45007733 1.75775
0.44222212 0.15414013 1.7789246
0.45812976 0.15273236 1.7787501
0.46811289 0.15063751 1.7806876
0.44416317 0.16548598 1.7802
0.45466328 0.16551384 1.7805001
-0.1737856 0.2863377 1.7817501
0.051113978 0.28687111 1.7789168
0.059443325 0.28588125 1.7758335
0.10288993 0.28481057 1.7775358
0.11279732 0.28499153 1.7780001
0.13741013 0.28591186 1.7791001
0.14620873 0.28565469 1.7775
0.31974512 0.28644428 1.7718929
0.33095586 0.28314751 1.776059
0.35197723 0.28793794 1.7732501
0.42854428 0.28497529 1.7756251
0.44052327 0.28268686 1.7775278
0.45939684 0.28262433 1.7706251
0.47535145 0.28350687 1.7708409
0.48609406 0.28597021 1.7702501
0.51406467 0.284325 1.7680335
0.5235821 0.28360295 1.7693751
0.57270861 0.28782967 1.7725834
0.61010921 0.28659832 1.7650001
0.61592603 0.28655773 1.7647501
-0.79309565 0.30345201 1.7772501
-0.78403819 0.30424047 1.7749252
-0.76407427 0.30373254 1.7788928
-0.75306749 0.30409232 1.7810001
-0.72608501 0.30489954 1.7718502
-0.71061945 0.30026978 1.77825
-0.66696626 0.30273014 1.7817501
-0.65636474 0.30201277 1.7789475
-0.64223307 0.30465764 1.7670001
-0.62664902 0.30268764 1.7815001
-0.56197757 0.30312401 1.7728571
-0.55523479 0.30295137 1.7743216
-0.4567554 0.30241576 1.7668543
-0.44778308 0.30334747 1.7723126
-0.42236185 0.30275917 1.7775625
-0.40552992 0.30282018 1.7746408
-0.38714135 0.29969779 1.7785169
-0.36988682 0.30039933 1.7767936
-0.35766187 0.30503276 1.7749168
-0.31288323 0.30153969 1.7735121
-0.30232331 0.30460608 1.771
-0.27250037 0.30595076 1.7745001
-0.26160201 0.30387074 1.7710314
-0.24307433 0.30101955 1.769673
-0.22680059 0.30233687 1.7696406
-0.18185371 0.30573523 1.7732501
-0.17053358 0.29646757 1.7715657
-0.15261501 0.30158517 1.7736579
-0.13604896 0.30080125 1.7753928
-0.11119118 0.30417767 1.7815001
-0.077677548 0.30075943 1.7706767
-0.064052716 0.29684809 1.7715584
-0.046851721 0.29998881 1.7708502
-0.028427018 0.30153096 1.7769063
-0.017338565 0.30123991 1.7817501
0.010209527 0.29812071 1.7665004
0.025476694 0.29715589 1.772059
0.044053711 0.29575738 1.77395
0.065038614 0.28868714 1.7733126
0.085142747 0.29605338 1.7732764
0.1000587 0.29701203 1.7730484
0.11716588 0.29746488 1.7756016
0.13409825 0.29426983 1.7718751
0.15334912 0.29629156 1.7700661
0.17235051 0.2975454 1.775875
0.18932849 0.29705089 1.779629
0.20407324 0.29834193 1.7784464
0.22577006 0.29810667 1.7720001
0.24230443 0.29834428 1.7726365
0.26022547 0.29416868 1.7786751
0.28006834 0.29754347 1.7686501
0.29822847 0.29534301 1.7695442
0.31539556 0.29348356 1.767693
0.33497813 0.29218715 1.77115
0.35022584 0.29255497 1.771908
0.36764076 0.29048321 1.7681073
0.38736418 0.29309312 1.7685558
0.40671694 0.30155993 1.7726877
0.41978386 0.29381528 1.7742321
0.46454683 0.29258102 1.7699376
0.47676241 0.29489511 1.7689741
0.4955357 0.29497615 1.7672144
0.51055074 0.29209748 1.7655417
0.52890331 0.29158226 1.766125
0.55007064 0.29918611 1.768639
0.5649066 0.29339728 1.7734305
0.58246553 0.29048193 1.7797501
0.60714144 0.29189754 1.7725313
0.61727023 0.29092357 1.7643751
-0.79520178 0.31553257 1.7733252
-0.78206825 0.31406865 1.7714213
-0.76605278 0.31396762 1.7767707
-0.74904829 0.31153893 1.7767624
-0.73033333 0.30919528 1.7704167
-0.69161928 0.30967754 1.7740002
-0.67473972 0.30976674 1.7708751
-0.65763021 0.31443882 1.7674074
-0.63747466 0.30869502 1.7680192
-0.62275898 0.31427717 1.7738907
-0.60078871 0.31542137 1.7700521
-0.58576053 0.31558007 1.7714554
-0.56747907 0.3141605 1.7667502
-0.5481776 0.31232205 1.7708523
-0.53256309 0.31759575 1.7749739
-0.51478451 0.31948027 1.7749003
-0.49761167 0.3213039 1.7708
-0.47009689 0.31451255 1.76425
-0.45807064 0.31221667 1.7661302
-0.44379118 0.31407651 1.7736148
-0.42812276 0.30899724 1.77495
-0.40484673 0.30996114 1.7740939
-0.38024348 0.30904931 1.77525
-0.36969092 0.31112203 1.7749763
-0.35341531 0.3110266 1.77575
-0.32924819 0.31073853 1.7764168
-0.31486431 0.30973998 1.7707084
-0.29551214 0.30902478 1.7646732
-0.27811539 0.31366041 1.766638
-0.26588362 0.31028685 1.7675
-0.21626404 0.30616626 1.77575
-0.20767877 0.30739546 1.7785625
-0.18796867 0.31369051 1.7679687
-0.1758924 0.31399697 1.7655001
-0.14659236 0.3078557 1.7712501
-0.13445896 0.30883992 1.7740554
-0.11576458 0.30954984 1.773286
-0.097753607 0.31217256 1.7708907
-0.081976838 0.31167939 1.7682877
-0.069489792 0.30897668 1.7691668
0.10115616 0.30951983 1.7694499
0.11839635 0.3091855 1.7711786
0.17830601 0.30691054 1.7715001
0.18816973 0.30733013 1.7731363
0.19820292 0.30709115 1.7640001
-0.80038851 0.32744035 1.7703749
-0.79035711 0.32488769 1.7645001
-0.66137969 0.32620606 1.7652502
-0.61655277 0.32583135 1.7696252
-0.61146456 0.32548609 1.76775
-0.58504939 0.3255935 1.7683334
-0.56623447 0.32497975 1.7650001
-0.50505519 0.32444483 1.7782501
-0.45101377 0.32407993 1.7762501
-0.44804302 0.32407993 1.7762501
-0.18253531 0.32507181 1.7655001
-0.17736182 0.32579863 1.7654376
0.74780089 0.41179737 1.7765418
0.76023352 0.41209269 1.7778125
0.80544925 0.41237369 1.7726251
0.82130504 0.41165373 1.7712501
0.83858508 0.40894732 1.7693278
0.85328019 0.4053978 1.7689501
0.87151551 0.40865973 1.7716765
0.89216357 0.41098925 1.7780416
0.90143573 0.40910533 1.7777501
-0.87682199 0.43007371 1.7722501
0.72993082 0.42414725 1.7714843
0.74429488 0.41690716 1.7744615
0.76384372 0.42335206 1.7745911
0.78319013 0.42568791 1.7717799
0.80165291 0.42350894 1.7699037
0.81905484 0.42164096 1.7668041
0.83597082 0.42343709 1.7663301
0.85143793 0.42278415 1.7641001
0.87437057 0.42008471 1.7693928
0.89009166 0.42264426 1.7765152
-0.97648329 0.44575936 1.7748572
-0.96165574 0.44834676 1.7781113
-0.95170355 0.44814181 1.77925
-0.92326474 0.44834074 1.7741666
-0.91141397 0.44831172 1.7729774
-0.88951623 0.4437241 1.7760355
-0.88015842 0.43322155 1.7730001
0.78536201 0.4370904 1.7694499
0.79314822 0.43503937 1.7683334
-0.97253388 0.45260617 1.77925
-0.96078926 0.45177326 1.7740418
-0.94449735 0.45482358 1.7715794
-0.92678112 0.45661178 1.7674538
-0.91102982 0.45422363 1.7691458
-0.8964572 0.45175827 1.7759167
-0.39795026 0.14351803 1.7847501
-0.39352795 0.14353813 1.7850001
-0.27118531 0.14061899 1.7985834
-0.26265907 0.14011589 1.7985625
-0.16500609 0.14171368 1.7997501
-0.16049102 0.14171368 1.7997501
0.43850857 0.14020839 1.7997501
0.46257454 0.14124125 1.7938609
0.47155356 0.14018893 1.7995001
0.60739273 0.14143808 1.79625
0.61516023 0.14149714 1.7970001
-0.54412133 0.15973257 1.7992501
-0.53013808 0.15959942 1.7977501
-0.51512104 0.15960497 1.7978126
-0.43221679 0.15991563 1.7845001
-0.4223845 0.15950492 1.7871072
-0.40274081 0.15277593 1.7900999
-0.38890409 0.15494622 1.7880483
-0.35131526 0.15963492 1.7981501
-0.32993865 0.1570586 1.7996502
-0.31131575 0.15685272 1.7913182
-0.29807556 0.15615223 1.7901667
-0.27684563 0.15449522 1.7977067
-0.26334307 0.15152843 1.7988336
-0.16847284 0.1527182 1.7982002
-0.15529354 0.15287666 1.7974516
-0.13634315 0.15694523 1.7949167
-0.12430923 0.15969928 1.7988751
-0.078239053 0.15126328 1.7995881
-0.066637836 0.15352674 1.7985727
-0.045968086 0.15930349 1.7944168
-0.025707373 0.15921606 1.7934793
-0.011950838 0.15875611 1.7939167
0.067189798 0.15814979 1.7949501
0.079814248 0.15511978 1.795848
0.099278472 0.15545224 1.798807
0.11577997 0.15528338 1.7963572
0.133909 0.15758675 1.7920208
0.15305439 0.15610322 1.7880306
0.17115149 0.15474512 1.7896037
0.18723147 0.15404452 1.7936635
0.20619059 0.15635404 1.7950139
0.22227001 0.1565658 1.7949822
0.3224723 0.15669452 1.7989168
0.33277804 0.1531771 1.7963872
0.35095805 0.15213846 1.7984308
0.36828211 0.15269218 1.796894
0.38265646 0.15368944 1.7989668
0.42625752 0.15477087 1.7916787
0.4371013 0.14916839 1.7887143
0.45498335 0.14422163 1.7935001
0.47309527 0.15016119 1.7980002
0.534693 0.15237223 1.7967657
0.54892558 0.1544124 1.7966155
0.5686183 0.15378201 1.7979927
0.58420712 0.15275317 1.7907017
0.60298574 0.15233274 1.7954853
0.61798501 0.14988457 1.7974448
-0.74846107 0.17252092 1.7995952
-0.73032093 0.17737487 1.7993931
-0.70799845 0.17216781 1.7935263
-0.69401008 0.1721565 1.7970085
-0.67549747 0.17405398 1.7995155
-0.61780858 0.17164414 1.7964289
-0.60334158 0.17180492 1.7945901
-0.58912158 0.17480098 1.7938408
-0.54450172 0.16961262 1.7994027
-0.53082103 0.16985007 1.7985665
-0.51524621 0.16716471 1.7982502
-0.43221679 0.16588569 1.7845001
-0.4213829 0.16966745 1.7871701
-0.40571508 0.17038657 1.793318
-0.38765785 0.17072041 1.7941096
-0.36965147 0.16963042 1.7961923
-0.35248739 0.17016791 1.7977018
-0.3267096 0.16801096 1.7992706
-0.31525725 0.17032517 1.7971208
-0.29703519 0.17071387 1.7950078
-0.27837604 0.16961676 1.7979528
-0.26575035 0.16423583 1.7991252
-0.24245881 0.17081356 1.7961946
-0.22531487 0.17015222 1.7895709
-0.20835982 0.17021391 1.7949706
-0.19050385 0.17167601 1.7948836
-0.17195535 0.17017023 1.7959718
-0.15435827 0.16954564 1.795338
-0.13603644 0.16985002 1.7948335
-0.12314533 0.17093442 1.7983595
-0.062050987 0.16669746 1.7948625
-0.045773014 0.16966572 1.7951431
-0.028641073 0.17035046 1.7951407
-0.0091345077 0.16967724 1.7955486
0.0080716079 0.17029022 1.7995002
0.027055249 0.17020899 1.7986325
0.043053713 0.16952024 1.7993125
0.062131789 0.16999513 1.7963748
0.079344071 0.16802517 1.7948302
0.098664746 0.16814208 1.797223
0.11607353 0.17011169 1.7950164
0.13381369 0.17095126 1.7906249
0.15247487 0.17116104 1.7947822
0.16797443 0.16468489 1.7876668
0.19014587 0.16467245 1.7950383
0.20624022 0.16540176 1.7954445
0.22277804 0.16541788 1.7956166
0.30285645 0.17320988 1.7985625
0.31020233 0.17367521 1.7991364
0.33254763 0.1639923 1.7964586
0.35174793 0.16531847 1.798625
0.36625785 0.16411868 1.7978437
0.38282266 0.1627875 1.79975
0.42550468 0.16755661 1.7927669
0.43700233 0.16785032 1.7894586
0.45934367 0.16891997 1.7963216
0.47965595 0.17459282 1.7945002
0.49321237 0.17481162 1.7954334
0.53807151 0.16240308 1.7955
0.54891634 0.16250108 1.7965835
0.56786275 0.16276488 1.7995001
0.58579642 0.16306496 1.7945001
0.60213709 0.16379663 1.7976
-0.74286669 0.18233918 1.7995836
-0.72854108 0.18791696 1.798743
-0.71114343 0.18739179 1.7943928
-0.69173455 0.18612967 1.7957919
-0.67667645 0.18781583 1.7985089
-0.61918986 0.18845899 1.7960962
-0.60365564 0.18719205 1.7940608
-0.58748561 0.18685913 1.7921393
-0.418758 0.18660869 1.7971874
-0.40821615 0.18195356 1.7957751
-0.38836262 0.18043627 1.7956251
-0.37642851 0.18047395 1.7960001
-0.31387261 0.18228006 1.7990001
-0.28841805 0.18235606 1.7997501
-0.27930751 0.18778618 1.7992325
-0.24323355 0.18082567 1.7995001
-0.22769974 0.18044047 1.7956667
-0.20844889 0.18067493 1.798
-0.18813059 0.183422 1.7954447
-0.1768101 0.18241544 1.7973499
-0.13312756 0.18313035 1.797932
-0.1248402 0.18431681 1.7992917
-0.043884769 0.18198416 1.7977223
-0.030662412 0.1818569 1.7985313
-0.0054735332 0.18085079 1.79975
0.028302299 0.1821665 1.7995279
0.036667138 0.18085077 1.7997501
0.06069994 0.18221419 1.7983501
0.12393558 0.18382756 1.7994169
0.13442767 0.18585438 1.7988561
0.14800823 0.18307069 1.7993752
0.3043499 0.18072517 1.7985001
0.31039485 0.18074192 1.7986668
0.47978964 0.18310313 1.7950001
0.49477118 0.18494618 1.7975544
-0.72592694 0.20029426 1.7986251
-0.7156769 0.19941038 1.7974377
-0.6856209 0.20343423 1.7964689
-0.67755276 0.20408095 1.7966529
-0.61903298 0.20026128 1.7983249
-0.60912293 0.19979782 1.7986668
-0.27938792 0.19891405 1.79975
-0.25524849 0.2094022 1.7993335
-0.2492182 0.20939235 1.7992501
-0.2552366 0.21691705 1.7992501
-0.2492182 0.21691705 1.7992501
0.17040449 0.26783377 1.7975832
0.18361349 0.26736197 1.7944168
0.38720292 0.26806349 1.7991252
-0.54139209 0.28473288 1.7942002
-0.53276181 0.28543159 1.791409
-0.52047944 0.28690019 1.7852501
-0.3446008 0.28538495 1.7945001
-0.33864501 0.28542471 1.7947501
-0.29587629 0.27870348 1.7917506
-0.28011507 0.28137848 1.7980187
-0.26732913 0.28469473 1.7996252
-0.20739813 0.28197932 1.7967125
-0.19069335 0.28047669 1.7963464
-0.1736654 0.28495976 1.791875
-0.15488254 0.28720552 1.7871501
-0.074362196 0.28790459 1.7915001
-0.062106784 0.28507438 1.7898571
-0.046317402 0.28496245 1.7907355
-0.035420824 0.28648615 1.7920001
0.011930367 0.2849578 1.7918251
0.02066285 0.28489381 1.7914286
0.04757509 0.28460684 1.7896072
0.063490629 0.28142127 1.7920716
0.074924998 0.28429002 1.7933251
0.10235981 0.28375021 1.7905
0.11845643 0.28368089 1.7867115
0.13392174 0.2844308 1.7853751
0.15453616 0.28308672 1.7960131
0.17033689 0.27824599 1.7968682
0.18791276 0.27937073 1.7928852
0.20453823 0.28169575 1.7927846
0.22467147 0.28664857 1.7923077
0.24178968 0.28346178 1.791841
0.25960696 0.28486192 1.7966253
0.27255812 0.28429934 1.7971251
0.32013372 0.28488776 1.7914168
0.33139825 0.28090772 1.7960358
0.3474344 0.28438869 1.7976878
0.38801348 0.27809513 1.7959164
0.40350828 0.28079328 1.7963539
0.42141527 0.28337967 1.7957668
0.44175944 0.28172103 1.7966667
0.46147498 0.27797273 1.7959775
0.47613546 0.27602139 1.7922002
0.49104556 0.28451443 1.79375
0.51291227 0.2845352 1.7915313
0.53297973 0.28293297 1.7885001
0.54643756 0.28546554 1.7875
0.57093781 0.28426701 1.783725
0.58302003 0.28067431 1.7852393
0.60271919 0.28174281 1.7973869
0.62052709 0.28248373 1.7951388
0.63107479 0.28550422 1.7952501
-0.79558754 0.30155918 1.7895418
-0.7826125 0.29975992 1.7896614
-0.76453078 0.30061609 1.7869002
-0.74732304 0.30180258 1.7861178
-0.73065621 0.30134723 1.7859169
-0.70943016 0.30160013 1.7874253
-0.69045812 0.30104041 1.79485
-0.67365623 0.2954959 1.7875088
-0.65733439 0.29756451 1.7907168
-0.63934761 0.30088645 1.790125
-0.61934876 0.29976755 1.7838334
-0.6034134 0.30081412 1.7843857
-0.57911736 0.30325651 1.7981251
-0.56700033 0.29863474 1.793487
-0.54718727 0.29924655 1.794237
-0.53038013 0.29663408 1.7852594
-0.51386333 0.29643339 1.7857382
-0.49684048 0.29866204 1.790632
-0.47878805 0.30063957 1.7862002
-0.45666522 0.2984184 1.7898834
-0.44223383 0.30020064 1.7956958
-0.42406151 0.299813 1.7959548
-0.40470973 0.29629895 1.7890779
-0.38735044 0.29595 1.7979003
-0.36694932 0.29677215 1.7919064
-0.34855309 0.29860973 1.7885187
-0.33343813 0.29702583 1.7875986
-0.31950986 0.29734167 1.7921946
-0.29558969 0.29940513 1.7908089
-0.27777633 0.29704919 1.795308
-0.26347187 0.29794508 1.791905
-0.24279642 0.29883841 1.7852083
-0.22470753 0.30118349 1.7890002
-0.2083206 0.29628572 1.7968888
-0.18983512 0.2966122 1.7955527
-0.16895176 0.29035309 1.7881666
-0.15348758 0.29381692 1.7858099
-0.13497783 0.29539448 1.7874584
-0.11810876 0.29914001 1.7895893
-0.099700205 0.29692504 1.7922366
-0.083852828 0.29563239 1.7914481
-0.063776143 0.2904616 1.7887918
-0.045125339 0.29599807 1.7894536
-0.028877866 0.296433 1.7920114
-0.010688747 0.29970992 1.7904583
0.006399319 0.29515138 1.7892917
0.026423058 0.29275593 1.7897679
0.039782051 0.29490399 1.7895277
0.069234878 0.28996766 1.78575
0.077115849 0.29100227 1.78845
0.12276512 0.28942642 1.7824167
0.12875089 0.28948054 1.7827501
0.15710515 0.29006994 1.7864001
0.16912074 0.29021141 1.791896
0.18991382 0.28994688 1.7902501
0.20836239 0.29182163 1.7879585
0.22721617 0.29309708 1.7845974
0.24213679 0.29416025 1.7870415
0.26193455 0.29061249 1.7912918
0.27724069 0.29339546 1.7945478
0.29608515 0.29388729 1.790125
0.30970222 0.29000828 1.7860001
0.35091418 0.28897932 1.7981876
0.37033245 0.29070514 1.7902918
0.38729817 0.28958029 1.7925999
0.404984 0.29445475 1.7901105
0.41773462 0.29117349 1.7898864
0.49898633 0.29101926 1.79225
0.50566149 0.28986692 1.78975
0.54852241 0.29142541 1.7855313
0.55826008 0.29851058 1.7832501
0.58969998 0.29111439 1.7836251
0.60406655 0.29160482 1.793908
0.62010467 0.28829297 1.7939168
0.63098693 0.28996837 1.7950001
-0.81279856 0.32140613 1.7945001
-0.80706024 0.31792101 1.7917501
-0.74485683 0.30798739 1.7863126
-0.6933105 0.30781254 1.7882084
-0.67636359 0.30740765 1.78295
-0.64023656 0.30724385 1.7820001
-0.61632675 0.31168297 1.782591
-0.606022 0.30951276 1.7830502
-0.58502632 0.30942622 1.7932292
-0.57232988 0.3075887 1.784
-0.5469451 0.30979452 1.7967972
-0.53077745 0.31085521 1.7868754
-0.51313782 0.31318304 1.7871381
-0.49707058 0.3130841 1.7861904
-0.47858542 0.31026912 1.7832651
-0.44083345 0.30987364 1.7905962
-0.34647354 0.30949536 1.7835279
-0.33538672 0.30936098 1.78275
-0.29244679 0.307616 1.7876501
-0.28175372 0.30795509 1.7861252
-0.21897382 0.30699492 1.7980001
-0.20649149 0.30731338 1.7940278
-0.19315563 0.30807883 1.7955627
-0.12044819 0.30796584 1.7861876
-0.097390682 0.30824867 1.7894089
-0.089380845 0.3075121 1.79225
-0.81279856 0.32440791 1.7945001
-0.80979729 0.32440791 1.7945001
0.68387985 0.35992691 1.7920001
0.68687701 0.35992691 1.7920001
0.68687701 0.36442327 1.7920001
0.89296365 0.39457211 1.799625
0.7404052 0.41281521 1.7873751
0.76369196 0.41190615 1.79645
0.78533351 0.4119994 1.7925
0.80684876 0.41316167 1.7888751
0.82046896 0.4115203 1.7929287
0.83740687 0.41045311 1.7966666
0.87449968 0.40364796 1.7865001
0.89137667 0.40382025 1.7967178
0.90522432 0.40665871 1.7979287
-0.97240728 0.42820722 1.7955
-0.96536839 0.42841592 1.796375
-0.92443681 0.43017349 1.7905
-0.90618777 0.429106 1.7971668
-0.89037591 0.4247196 1.795784
-0.88038492 0.42499316 1.794625
0.73331779 0.42053732 1.7893573
0.73883241 0.4176712 1.789
0.7710008 0.42211434 1.7866875
0.78275394 0.42116833 1.791646
0.79909843 0.41865981 1.7910625
-0.97909379 0.43977603 1.789625
-0.96369874 0.44050786 1.7956802
-0.94384181 0.44405967 1.7883815
-0.92563206 0.43926331 1.787169
-0.91099507 0.44193518 1.7926946
-0.89543027 0.43729159 1.7904999
0.77023011 0.43286443 1.7837501
-0.97296566 0.45259929 1.7910001
-0.97037637 0.4527888 1.7917501
-0.9442634 0.45105147 1.784875
-0.93283522 0.45057762 1.7830001
0.37443933 0.12486991 1.8175001
0.38051879 0.12486991 1.8175001
-0.72601831 0.14028969 1.8112695
-0.71645457 0.14024965 1.81195
-0.41543403 0.1414354 1.8155001
-0.40464681 0.14085111 1.8080002
-0.27944639 0.14145143 1.8118
-0.25477204 0.14073846 1.8066251
-0.24673013 0.14124893 1.8067083
-0.1707221 0.14271763 1.8125001
-0.1509136 0.14261919 1.8112501
-0.12973404 0.14264545 1.8115835
-0.12209339 0.14256999 1.8106251
-0.075044043 0.14235674 1.8079166
-0.067468807 0.14232393 1.8075001
0.044195704 0.14094521 1.8175719
0.082147703 0.14077288 1.8069999
0.098208524 0.14109425 1.8094094
0.15835328 0.14143579 1.8058126
0.17192711 0.13958141 1.8088969
0.18541329 0.14049527 1.8083127
0.2439626 0.14236002 1.8079586
0.26116824 0.14267036 1.8119001
0.27915147 0.14257982 1.8107501
0.29206747 0.14222549 1.8062501
0.32039455 0.13861394 1.8084375
0.33042082 0.13840477 1.807143
0.35418168 0.14047509 1.8156139
0.3703436 0.13629057 1.8165234
0.38626722 0.13616598 1.8099841
0.40509313 0.13963206 1.8118216
0.42306477 0.1403285 1.8085938
0.43943101 0.14050055 1.8035001
0.46016389 0.14006017 1.8124375
0.47969607 0.14000914 1.8117814
0.49211407 0.14170016 1.8124167
0.51909995 0.14277011 1.8131666
0.53113753 0.13981432 1.8077083
0.55103368 0.13744527 1.8149503
0.56314659 0.13943209 1.8152695
0.58702624 0.13980025 1.803318
0.59896916 0.14004061 1.8040556
0.62372172 0.14093918 1.8052502
0.63454455 0.14281604 1.81375
-0.77911478 0.15694627 1.8145458
-0.76655847 0.15768889 1.8147032
-0.7466737 0.15492055 1.8082776
-0.7284919 0.15317266 1.809314
-0.71252191 0.15519311 1.81251
-0.69727886 0.16070357 1.8101876
-0.65615392 0.15747181 1.8165753
-0.64485902 0.15666153 1.8160001
-0.59987813 0.15985464 1.8177501
-0.5840714 0.15876363 1.8144853
-0.56580871 0.15532261 1.8113215
-0.55123454 0.1548444 1.8070002
-0.53047466 0.1571366 1.8040001
-0.50822926 0.16027634 1.8053751
-0.50214249 0.16074611 1.8106667
-0.47496471 0.16077125 1.81095
-0.45655751 0.15409891 1.8088576
-0.44262916 0.15335785 1.8065358
-0.42261666 0.15267959 1.8066499
-0.41132653 0.1551684 1.8074585
-0.39255092 0.14639576 1.8080001
-0.36306393 0.15781166 1.8117501
-0.35026601 0.15540189 1.8102032
-0.33488834 0.15320668 1.8059411
-0.31606695 0.15335526 1.8030001
-0.2969346 0.15029128 1.8150358
-0.28229743 0.15006165 1.8113637
-0.25492001 0.15328565 1.8012666
-0.24237224 0.15263572 1.8043404
-0.22679119 0.15939294 1.8125001
-0.20688976 0.15922804 1.8106251
-0.17606814 0.15314262 1.8103334
-0.14710438 0.14890192 1.8099166
-0.13318405 0.14906181 1.8054522
-0.11679595 0.15310131 1.803516
-0.096081935 0.15861131 1.8055278
-0.084384277 0.15501191 1.8036923
-0.060133405 0.15100235 1.8028437
-0.047315829 0.15678634 1.8049287
-0.028798727 0.1515803 1.8126901
-0.0092426213 0.15063809 1.80718
0.0073894202 0.15516202 1.8096668
0.023697402 0.15774617 1.8110358
0.045031097 0.15359934 1.8157281
0.061309971 0.153078 1.8134195
0.081172742 0.14708807 1.8060384
0.097053461 0.14737669 1.8032858
0.13930137 0.15106638 1.8035835
0.15525383 0.14739655 1.8048439
0.16964407 0.14618836 1.8054445
0.19014519 0.14678328 1.8065625
0.20752412 0.15132116 1.806625
0.22919868 0.15103863 1.807766
0.24389966 0.15290621 1.8075002
0.26125556 0.15245025 1.8021185
0.27943861 0.15249969 1.8027153
0.2970826 0.15336934 1.8051718
0.3169603 0.153219 1.8057691
0.33224708 0.14498559 1.8030001
0.37259781 0.14484484 1.8012501
0.3903271 0.15141276 1.8026549
0.40570569 0.15226845 1.8023919
0.4195084 0.15006019 1.8005626
0.44770655 0.14526702 1.8065001
0.4523955 0.14531729 1.8071251
0.48152539 0.15371537 1.8064167
0.49413025 0.15324534 1.8063163
0.51498288 0.15416381 1.8123285
0.52906191 0.15260187 1.8065578
0.55136764 0.14702509 1.8095937
0.56525832 0.14597465 1.8153
0.58550316 0.14497352 1.8028501
0.5978623 0.14504589 1.80375
0.62359595 0.15542062 1.8035278
0.6363861 0.15587752 1.8127501
-0.79711342 0.17464325 1.804981
-0.78197265 0.17115901 1.8054564
-0.76798654 0.17094317 1.8113271
-0.74617928 0.16725518 1.8003166
-0.72975171 0.16862741 1.8021334
-0.71475863 0.16649225 1.802269
-0.69041514 0.16476081 1.8034091
-0.67450845 0.16776045 1.8031124
-0.65671319 0.17100976 1.8039373
-0.63983381 0.17103665 1.8063915
-0.62421423 0.16811475 1.8073463
-0.60079396 0.16486278 1.8101876
-0.58332831 0.17013748 1.8088881
-0.56726611 0.1729369 1.8155407
-0.55278414 0.16928618 1.8021458
-0.52327448 0.17635944 1.8000001
-0.51131994 0.173081 1.8035126
-0.49603581 0.17204103 1.8080807
-0.47640771 0.17113708 1.8057067
-0.45966175 0.17075115 1.8043679
-0.44269866 0.17149258 1.8028705
-0.4291257 0.17693509 1.8007501
-0.34366763 0.17198086 1.8014063
-0.33492473 0.17156105 1.8009688
-0.29461679 0.17794727 1.8008333
-0.27039534 0.17786492 1.8000001
-0.25934741 0.17125012 1.8016877
-0.2466092 0.16300608 1.8021668
-0.18805635 0.16470921 1.8043333
-0.14997667 0.17635944 1.8000001
-0.11314806 0.17021936 1.8036156
-0.099055484 0.17077552 1.8046334
-0.082319885 0.17049874 1.8016946
-0.066713952 0.1745325 1.8024844
-0.053783305 0.1783343 1.8047501
-0.020623555 0.17870484 1.8085001
-0.014571543 0.17861426 1.8075835
0.0080846446 0.17054933 1.8022809
0.018632699 0.17054385 1.80225
0.04512281 0.17102411 1.8008626
0.083346829 0.17755854 1.8083751
0.097292587 0.17788014 1.8078126
0.11045912 0.17791434 1.8005002
0.17143823 0.17310691 1.8035096
0.18817993 0.17382994 1.8056737
0.20720488 0.17522834 1.8038472
0.22668852 0.17416018 1.8061908
0.24413997 0.17121862 1.8092779
0.26179627 0.17090094 1.8058616
0.27942765 0.17051722 1.8055147
0.29597718 0.17064328 1.8074085
0.31766132 0.1690522 1.80234
0.33309567 0.17363815 1.8052381
0.34945726 0.1750052 1.8077627
0.36966175 0.1726487 1.8033144
0.38784534 0.1709253 1.8012269
0.40554884 0.17055891 1.8036714
0.4203015 0.17316402 1.8042753
0.44064227 0.17575932 1.8054219
0.46075615 0.1751513 1.8030554
0.47584578 0.1688676 1.8033184
0.49513927 0.16716839 1.8037264
0.51254749 0.17027035 1.8036592
0.53059214 0.17012657 1.8086292
0.55122972 0.17115802 1.8065542
0.56643689 0.17118736 1.8026592
0.58430213 0.17227967 1.8034916
0.60261947 0.17306049 1.80138
0.62068522 0.17097817 1.8030293
0.63801843 0.17098537 1.8132747
-0.79908061 0.189559 1.8110249
-0.78298706 0.18969473 1.8123335
-0.76434487 0.18919893 1.8076586
-0.74778956 0.19015934 1.8023752
-0.73722231 0.19447924 1.8005
-0.70684874 0.19420934 1.8085001
-0.69663602 0.18949264 1.8071809
-0.66888922 0.1900132 1.8009689
-0.65904242 0.18885376 1.8093441
-0.63837087 0.18907727 1.8068355
-0.60464102 0.19595793 1.8002501
-0.58047396 0.19035092 1.8023438
-0.5680626 0.18927608 1.8125224
-0.54793078 0.18975627 1.8059169
-0.532332 0.18881822 1.8059286
-0.51391816 0.18883815 1.8041526
-0.49548844 0.18929185 1.8084762
-0.47649103 0.18969455 1.8083639
-0.4616802 0.1873396 1.8078438
-0.44048396 0.18842942 1.8038361
-0.42755139 0.18990944 1.8017813
-0.40141547 0.18530433 1.8138751
-0.38556391 0.18997678 1.8092625
-0.3691287 0.18917543 1.8054147
-0.35136917 0.18950529 1.8090527
-0.33375686 0.18941931 1.8113164
-0.3153196 0.18992949 1.8073049
-0.29686692 0.18903263 1.8026398
-0.27282691 0.19041064 1.8011564
-0.26059169 0.18893933 1.8050764
-0.24387234 0.19047664 1.8086154
-0.22451866 0.19079334 1.808328
-0.20628659 0.19048208 1.8054087
-0.18834636 0.1936817 1.8070971
-0.16964141 0.19012848 1.8101094
-0.15254599 0.18972988 1.8126115
-0.13562572 0.19262922 1.8093336
-0.11495055 0.18892536 1.8082018
-0.098876752 0.18934648 1.8066534
-0.081931442 0.18881792 1.8062918
-0.063584559 0.18849871 1.8071722
-0.047010463 0.1911574 1.8065095
-0.027434418 0.19122195 1.8093395
-0.010465689 0.19009243 1.809515
0.00808788 0.1887486 1.80325
0.02556059 0.19158933 1.810482
0.044619303 0.18950343 1.8084072
0.060730956 0.19076972 1.809809
0.082435675 0.18891282 1.8132848
0.099065319 0.18971631 1.8124725
0.11591098 0.18905717 1.8022882
0.13517195 0.19567668 1.8087499
0.15479329 0.19105484 1.8108037
0.17156403 0.18944043 1.8098261
0.18948036 0.18918371 1.8074373
0.20743163 0.18899804 1.8076929
0.22456515 0.1893767 1.8115727
0.2423265 0.18953508 1.812857
0.25799248 0.18933828 1.8133652
0.28628701 0.18263441 1.8175001
0.29818329 0.18844081 1.8159169
0.31566244 0.19000654 1.8112087
0.33450484 0.18856026 1.8060158
0.35185903 0.18866837 1.8045137
0.36985463 0.18878366 1.8071485
0.38592288 0.18874273 1.8111666
0.40534458 0.18829034 1.8075832
0.42238739 0.18924694 1.8080417
0.4407779 0.18935786 1.8090695
0.45875716 0.18874136 1.8061975
0.47534719 0.19082311 1.8043889
0.49523908 0.1942717 1.8013669
0.51321352 0.18847896 1.8054538
0.53030264 0.19132301 1.8153276
0.55156636 0.18928778 1.8109142
0.56692731 0.18898998 1.8089563
0.58362764 0.18604697 1.8077873
0.6030575 0.18838258 1.8037121
0.62009561 0.18867734 1.8026112
0.63476682 0.18663508 1.8064039
-0.79627872 0.20702669 1.8101629
-0.78250808 0.20775576 1.8112291
-0.76413769 0.20678604 1.8074197
-0.7464931 0.20701237 1.8047153
-0.73102254 0.20827037 1.807524
-0.71060407 0.20185436 1.8111112
-0.6956659 0.2074541 1.8085836
-0.67153114 0.20868577 1.8049432
-0.66166687 0.20669505 1.8063501
-0.63611007 0.20525466 1.8058857
-0.61937743 0.21025205 1.8044583
-0.60499984 0.20518745 1.8081907
-0.58264655 0.20484331 1.8111537
-0.56699812 0.20815529 1.8146838
-0.54926163 0.20757478 1.8127059
-0.53259313 0.20774956 1.8111832
-0.51631981 0.2065174 1.80305
-0.49422222 0.20320359 1.8128282
-0.47555876 0.20235284 1.8103126
-0.45553011 0.21179947 1.8095251
-0.44043797 0.20715518 1.8059667
-0.42283589 0.20748873 1.8072865
-0.41231248 0.20820296 1.815125
-0.38338774 0.20514986 1.8097502
-0.36868703 0.20516172 1.8034829
-0.35082605 0.20662852 1.8052133
-0.33701223 0.20757146 1.8110001
-0.31514969 0.20276867 1.8106407
-0.29621106 0.20656326 1.8026716
-0.27859813 0.2077665 1.8053032
-0.26295027 0.20561178 1.8057188
-0.24205273 0.20711982 1.8089924
-0.22507903 0.20771235 1.8107989
-0.20695093 0.20577879 1.8089397
-0.18727331 0.20601539 1.8126633
-0.17091864 0.2081465 1.8146043
-0.1528039 0.20826933 1.8156943
-0.13596731 0.20676492 1.813902
-0.11017057 0.20197836 1.81375
-0.096587971 0.20443326 1.8098297
-0.082992457 0.20697857 1.810432
-0.058602262 0.20709914 1.8137343
-0.045916695 0.20703545 1.8106877
-0.032484863 0.20342383 1.8106593
-0.0024799104 0.2017594 1.8117502
0.0074384036 0.20445395 1.8112046
0.025170173 0.20206437 1.8172503
0.044482306 0.20023572 1.8117085
0.056794856 0.20090346 1.8177501
0.087178081 0.20086202 1.8173751
0.098629974 0.20221266 1.8170911
0.11692599 0.199766 1.8074585
0.13751411 0.20241266 1.8131042
0.15291506 0.20299712 1.8147168
0.17504054 0.20367479 1.8132885
0.18794101 0.20484664 1.8098297
0.20746873 0.20247789 1.8145
0.22042157 0.20355095 1.8167043
0.24660075 0.20225675 1.81625
0.25424767 0.20229851 1.8166251
0.34056044 0.20245144 1.811125
0.34965065 0.20247336 1.8062967
0.37116927 0.2007515 1.816375
0.38025707 0.20073768 1.8162501
0.40989885 0.20160203 1.8076502
0.42363602 0.20682956 1.8105471
0.44145465 0.20755035 1.8133013
0.45973349 0.20393467 1.8122501
0.47770631 0.20692626 1.8091666
0.49296939 0.20517232 1.8058749
0.51237893 0.20012981 1.8107501
0.53209931 0.20205307 1.8171499
0.55046958 0.20234235 1.8155
0.56353039 0.20299913 1.8138126
0.60518861 0.20090452 1.8056111
0.62050158 0.20086993 1.8037916
-0.79463559 0.22022794 1.8087858
-0.78323603 0.22205427 1.8104626
-0.68800247 0.22213343 1.8102144
-0.67514259 0.22509302 1.8092271
-0.66236252 0.2252638 1.809397
-0.61999303 0.21734481 1.8070002
-0.60891485 0.21607703 1.8175001
-0.57687855 0.22363167 1.8171251
-0.56593317 0.22502819 1.8161336
-0.54822248 0.22709595 1.8144794
-0.53055394 0.2261765 1.8078126
-0.51551062 0.22661397 1.8103102
-0.45472029 0.22335258 1.8117344
-0.44126412 0.22330219 1.8099204
-0.42411053 0.22193928 1.8103044
-0.34734511 0.22095333 1.81075
-0.33550513 0.22337581 1.8094544
-0.29299846 0.22041774 1.8094375
-0.27954292 0.2228207 1.8105103
-0.26205415 0.22170673 1.8088504
-0.24406351 0.22068945 1.807404
-0.22479495 0.21952574 1.8172857
-0.2075209 0.22497009 1.8144549
-0.18897258 0.22617024 1.8131171
-0.1710549 0.22198194 1.8160625
-0.15281777 0.22499482 1.8158587
-0.13913496 0.2249717 1.8156668
-0.085784465 0.21836376 1.8112501
-0.054103669 0.21887615 1.8155001
-0.04643935 0.21852955 1.8126251
-0.67262006 0.2382973 1.8130627
-0.6641022 0.23644453 1.8105001
-0.56597298 0.23764241 1.8160001
-0.54942775 0.24001542 1.8132502
-0.53002983 0.23944245 1.8120193
-0.51357538 0.24283129 1.8145175
-0.50338531 0.24160323 1.8151251
-0.20249562 0.23815592 1.8120002
-0.19494618 0.23818879 1.8122501
-0.1498068 0.23414925 1.8161876
-0.14072761 0.23420563 1.8166251
0.55295455 0.25149164 1.8098125
0.56050259 0.25148293 1.8097501
-0.50965852 0.26835725 1.81275
-0.50251871 0.26846275 1.812
-0.25486016 0.26927409 1.8072501
-0.2488665 0.26932997 1.8076251
-0.18788575 0.26772422 1.81725
-0.073616505 0.26968381 1.8100001
-0.06058947 0.26557165 1.8085892
-0.047179297 0.26411286 1.8073024
-0.0085214283 0.26936349 1.8078501
0.10119621 0.26820728 1.8113891
0.11111148 0.26833665 1.811125
0.15461163 0.26646471 1.8121667
0.17505537 0.26733747 1.814625
0.19144528 0.26640326 1.8117291
0.20450792 0.26674157 1.8147001
0.31725797 0.26533881 1.8083931
0.33118406 0.26529151 1.8091481
0.35075334 0.26780275 1.8098848
0.36989281 0.26236778 1.8126713
0.38499016 0.2612299 1.8109003
0.40558815 0.26597425 1.8088055
0.41783786 0.2659474 1.8093001
0.50334132 0.26831812 1.8110001
0.51418626 0.26687747 1.8102943
0.5309214 0.26766109 1.8089231
0.55040228 0.26284438 1.8086531
0.56556851 0.26388618 1.8066044
0.58371633 0.26680782 1.8066609
0.60473609 0.26912507 1.8062501
0.62291372 0.26222125 1.8108336
0.63319045 0.26822913 1.807
-0.68709075 0.28741261 1.8072501
-0.67984694 0.28754511 1.8080835
-0.62030387 0.28447884 1.8108077
-0.61003321 0.28490144 1.8129376
-0.58545619 0.28360733 1.8119218
-0.54583824 0.28159687 1.8112189
-0.53161937 0.28416163 1.8122292
-0.51168245 0.27958283 1.8099546
-0.49556735 0.28077173 1.8101407
-0.47686052 0.28628978 1.8078001
-0.45840126 0.28206381 1.8151911
-0.34716094 0.28548917 1.8078333
-0.33324063 0.28594381 1.8107224
-0.31288216 0.28019267 1.811625
-0.29737559 0.27364579 1.801893
-0.27996397 0.27505887 1.8055835
-0.25938717 0.27893344 1.8040303
-0.24643771 0.27988046 1.8064502
-0.22330792 0.28538164 1.8087502
-0.20220333 0.27516171 1.8161875
-0.18778621 0.27383456 1.8162793
-0.16889627 0.28512326 1.8055278
-0.15632881 0.2857841 1.8097085
-0.13030423 0.2823647 1.8110669
-0.11667809 0.28084928 1.8087974
-0.099022925 0.28462267 1.8075316
-0.079028524 0.28138721 1.8043292
-0.065103337 0.27728817 1.8018037
-0.045973841 0.2769317 1.8067399
-0.024840506 0.2829527 1.8070832
-0.010028887 0.27983475 1.8071249
0.0069250055 0.27875832 1.8085536
0.026126988 0.28355336 1.8089318
0.044293899 0.28269067 1.8080002
0.060654495 0.27727449 1.806861
0.081886411 0.27936134 1.8131963
0.098396868 0.27895454 1.8106172
0.1174185 0.27759254 1.8102603
0.13530625 0.27917665 1.8113623
0.15075327 0.27490702 1.8037707
0.19497027 0.27184045 1.8092501
0.2095167 0.27443191 1.8108382
0.22572343 0.28044775 1.8098481
0.24126235 0.27488449 1.8120239
0.25627652 0.28171676 1.8095001
0.28032851 0.28423661 1.8078079
0.29808417 0.2857165 1.8060836
0.31875059 0.27869055 1.8080001
0.33103418 0.27602178 1.8078874
0.35115561 0.27784044 1.8077791
0.36817741 0.27976564 1.8080859
0.37933078 0.279448 1.804625
0.40805674 0.27369314 1.8015209
0.42053649 0.27600434 1.8051389
0.44367793 0.28023878 1.8065001
0.45777708 0.27647603 1.8069003
0.48367009 0.27372852 1.81675
0.49683449 0.27858678 1.8109468
0.51290596 0.27909362 1.8095889
0.53029001 0.27645031 1.8047915
0.54866987 0.27755836 1.8049644
0.56605804 0.27913842 1.804029
0.58262324 0.27499184 1.8038596
0.60349888 0.274055 1.8055558
0.62588859 0.27517197 1.8062778
0.63621777 0.27778581 1.8075832
-0.80053812 0.29659495 1.8122115
-0.78491348 0.29623753 1.810058
-0.76252687 0.29685083 1.8067117
-0.74699557 0.29527006 1.8148308
-0.73554522 0.30032995 1.8168125
-0.70754337 0.30417418 1.8170834
-0.69132906 0.29776818 1.8032354
-0.66861016 0.29484487 1.8120502
-0.65700811 0.2947216 1.813341
-0.63867301 0.2926636 1.8077382
-0.62137687 0.29269484 1.8025589
-0.60242057 0.29498976 1.8079171
-0.58631337 0.2956304 1.8084298
-0.56622195 0.29598507 1.8094643
-0.5547334 0.29736501 1.8100358
-0.52651602 0.28886381 1.816375
-0.51252341 0.28980714 1.8109001
-0.49466017 0.29188216 1.8078891
-0.47611839 0.29513547 1.8047212
-0.46021178 0.29243812 1.8099022
-0.43990302 0.29339832 1.8124876
-0.42294696 0.29246798 1.8122047
-0.40767568 0.29271549 1.8096875
-0.39409018 0.29360089 1.808125
-0.36814561 0.29408139 1.8087814
-0.35647625 0.29406235 1.8109999
-0.32793406 0.29081342 1.80425
-0.3148061 0.29262239 1.8088499
-0.29716617 0.29629093 1.8009496
-0.25663197 0.2935836 1.8006002
-0.24192102 0.29602504 1.8057858
-0.22558728 0.29546294 1.806057
-0.14923799 0.28922936 1.8091877
-0.13391051 0.291226 1.8095001
-0.11585525 0.29203123 1.8077712
-0.10524187 0.29043573 1.8072501
-0.082269736 0.28937101 1.8006251
-0.025514631 0.29148859 1.8067502
-0.0092993826 0.29504266 1.8056959
0.0020598518 0.29039553 1.807
0.031547435 0.29135251 1.8082501
0.038262308 0.29142225 1.8040001
0.086586803 0.29007491 1.8050418
0.092286065 0.2905696 1.8043501
0.28604031 0.29078484 1.8031667
0.29647717 0.29116091 1.8055
0.31333303 0.29038548 1.8069376
0.35899144 0.2894313 1.8010001
0.3691411 0.29030713 1.8064501
0.37925225 0.28995359 1.8042501
0.56409734 0.29409599 1.801896
-0.70754337 0.30721369 1.8170834
-0.69214892 0.30746448 1.8007501
-0.59550279 0.30810475 1.8045001
-0.59080869 0.30950072 1.8009167
-0.29299426 0.30735773 1.8001251
-0.84724253 0.35428616 1.816875
-0.84358454 0.35276175 1.8168501
0.86365682 0.37580872 1.8107501
0.86827403 0.37518606 1.8077501
-0.86580223 0.38786361 1.8175626
0.73225111 0.39284819 1.8055387
0.74474037 0.39215797 1.8103752
0.80545282 0.38947728 1.8118128
0.81535786 0.38974068 1.8116157
0.86047101 0.38666996 1.8114039
0.87058985 0.38752517 1.8109351
0.89503312 0.39208028 1.8124585
0.90463406 0.39142966 1.8129584
0.92017299 0.39293212 1.8171002
0.73204225 0.40422046 1.8047283
0.74635625 0.40578535 1.8024645
0.75770497 0.40825072 1.8024584
0.80471319 0.40419382 1.8086712
0.81792521 0.40452775 1.80882
0.83483893 0.40681264 1.8139546
0.85676318 0.40536422 1.8115501
0.87362248 0.40189868 1.8120435
0.8860411 0.40047634 1.8114998
0.91286951 0.40205303 1.8104234
0.9199025 0.39921108 1.8161668
-0.99477977 0.4295392 1.8100001
-0.98135734 0.42655367 1.8085961
-0.96157795 0.42340952 1.8054769
-0.94745636 0.42528453 1.8076054
-0.93161517 0.43145856 1.8155
-0.9067567 0.4269166 1.8053001
-0.88799667 0.41880232 1.8114643
-0.88000196 0.41988033 1.8030716
0.73451114 0.41625077 1.8022501
0.80326623 0.41545612 1.8062859
0.81825477 0.41443026 1.8074584
-0.9936524 0.43399513 1.8049999
-0.98697323 0.43365207 1.8056668
-0.95456594 0.4356643 1.8015001
-0.94775075 0.43573856 1.8043972
-0.91192269 0.43465543 1.8035626
-0.33138788 0.12567718 1.8292501
0.35499915 0.12539332 1.8315001
0.36564466 0.1239706 1.8267499
0.3904016 0.12560418 1.8281876
0.40010667 0.12577164 1.8306251
0.42671379 0.12453793 1.8305
0.44075921 0.1195721 1.826728
0.45528528 0.12231541 1.8247501
0.49622768 0.12425505 1.8252188
0.51177663 0.12472965 1.8303056
0.57042307 0.12282681 1.8288658
0.58574808 0.12279474 1.8319002
0.60221547 0.12271765 1.83075
0.62070364 0.12203034 1.8280975
0.63364148 0.12380791 1.8242501
-0.74180943 0.14200857 1.822875
-0.7286799 0.13460685 1.8290769
-0.71703309 0.14034699 1.8324645
-0.6675747 0.14122711 1.8325001
-0.65917873 0.14265002 1.8262187
-0.41985774 0.13936059 1.8348335
-0.41239214 0.13840683 1.8357501
-0.37127388 0.14101999 1.8298125
-0.34655046 0.13776705 1.8304038
-0.33291766 0.13485688 1.8292502
-0.32220975 0.13485685 1.8292501
-0.29572299 0.13970989 1.8304725
-0.28095224 0.13870314 1.8295314
-0.26106796 0.13794188 1.8295835
-0.2441545 0.13901168 1.827
-0.23240259 0.14336723 1.8207501
-0.20749542 0.13909101 1.8332741
-0.19421853 0.14134271 1.8340001
-0.14583515 0.14358376 1.8235
-0.13461111 0.14069615 1.8292727
-0.11635023 0.14044863 1.8273754
-0.1003588 0.14104225 1.8244466
