# .PCD v0.7 - Point Cloud Data file format
VERSION 0.7
FIELDS x y z
SIZE 4 4 4
TYPE F F F
COUNT 1 1 1
WIDTH 1905
HEIGHT 1
VIEWPOINT 0 0 0 1 0 0 0
POINTS 1905
DATA ascii
2.1099999 0.07 0.22197954
2.1099999 0.050000001 0.22197954
2.1099999 0.029999999 0.20461868
2.1099999 0.0099999998 0.21093173
2.1099999 -0.0099999998 0.20777522
2.1099999 -0.029999999 0.20619695
2.1099999 -0.050000001 0.22040127
2.1099999 -0.07 0.21724476
2.1099999 -0.090000004 0.22355779
2.1099999 -0.11 0.18883611
2.1099999 -0.13 0.20304044
2.1099999 -0.15000001 0.20461868
2.1099999 -0.17 0.20461868
2.1099999 -0.19 0.21093173
2.1099999 -0.20999999 0.20777522
2.1099999 -0.23 0.20619695
2.1099999 -0.25 0.20935346
2.1099999 -0.27000001 0.20461868
2.1099999 -0.28999999 0.20619695
2.1099999 -0.31 0.20461868
2.1099999 -0.33000001 0.19830565
2.1099999 -0.34999999 0.20461868
2.1099999 -0.37 0.20146216
2.1099999 -0.38999999 0.20935346
2.1099999 -0.41 0.19988392
2.1099999 -0.43000001 0.20461868
2.1099999 -0.44999999 0.20461868
2.1099999 -0.47 0.18883611
2.1099999 -0.49000001 0.20619695
2.1099999 -0.50999999 0.19041435
2.1099999 -0.52999997 0.19199263
2.1099999 -0.55000001 0.20935346
2.1099999 -0.56999999 0.19672741
2.1099999 -0.58999997 0.18883611
2.1099999 -0.61000001 0.20146216
2.1099999 -0.63 0.21566649
2.1099999 -0.64999998 0.20304044
2.1099999 -0.67000002 0.21093173
2.1099999 -0.69 0.19988392
2.1099999 -0.70999998 0.21093173
2.1099999 -0.73000002 0.21250997
2.1099999 -0.75 0.21250997
2.1099999 -0.76999998 0.18725784
2.1099999 -0.79000002 0.19830565
2.1099999 -0.81 0.17305352
nan nan nan
nan nan nan
nan nan nan
nan nan nan
nan nan nan
nan nan nan
nan nan nan
nan nan nan
2.1099999 -0.99000001 -0.11576779
2.0899999 0.99000001 -0.096828684
2.0899999 0.97000003 -0.11576779
2.0899999 0.94999999 -0.12050257
2.0899999 0.93000001 -0.11261128
2.0899999 0.91000003 -0.11576779
2.0899999 0.88999999 -0.11418954
2.0899999 0.87 -0.11576779
2.0899999 0.85000002 -0.10471998
2.0899999 0.82999998 -0.11261128
2.0899999 0.81 -0.11103302
2.0899999 0.79000002 -0.092093915
nan nan nan
nan nan nan
nan nan nan
nan nan nan
nan nan nan
nan nan nan
nan nan nan
nan nan nan
2.0899999 0.61000001 0.23144908
2.0899999 0.58999997 0.23144908
2.0899999 0.56999999 0.22355779
2.0899999 0.55000001 0.22513606
2.0899999 0.52999997 0.22040127
2.0899999 0.50999999 0.21724476
2.0899999 0.49000001 0.2267143
2.0899999 0.47 0.2267143
2.0899999 0.44999999 0.2267143
2.0899999 0.43000001 0.22513606
2.0899999 0.41 0.21724476
2.0899999 0.38999999 0.2267143
2.0899999 0.37 0.21882303
2.0899999 0.34999999 0.21566649
2.0899999 0.33000001 0.21724476
2.0899999 0.31 0.21882303
2.0899999 0.28999999 0.22829257
2.0899999 0.27000001 0.21093173
2.0899999 0.25 0.21408825
2.0899999 0.23 0.21724476
2.0899999 0.20999999 0.21566649
2.0899999 0.19 0.22355779
2.0899999 0.17 0.22040127
2.0899999 0.15000001 0.22040127
2.0899999 0.13 0.21566649
2.0899999 0.11 0.20304044
2.0899999 0.090000004 0.19988392
2.0899999 0.07 0.21882303
2.0899999 0.050000001 0.20304044
2.0899999 0.029999999 0.20304044
2.0899999 0.0099999998 0.21566649
2.0899999 -0.0099999998 0.22040127
2.0899999 -0.029999999 0.22040127
2.0899999 -0.050000001 0.21724476
2.0899999 -0.07 0.21250997
2.0899999 -0.090000004 0.21408825
2.0899999 -0.11 0.21724476
2.0899999 -0.13 0.21724476
2.0899999 -0.15000001 0.19672741
2.0899999 -0.17 0.21093173
2.0899999 -0.19 0.21566649
2.0899999 -0.20999999 0.21408825
2.0899999 -0.23 0.21250997
2.0899999 -0.25 0.21250997
2.0899999 -0.27000001 0.15727095
2.0899999 -0.28999999 0.20935346
2.0899999 -0.31 0.20777522
2.0899999 -0.33000001 0.20619695
2.0899999 -0.34999999 0.20619695
2.0899999 -0.37 0.20146216
2.0899999 -0.38999999 0.21882303
2.0899999 -0.41 0.20146216
2.0899999 -0.43000001 0.21250997
2.0899999 -0.44999999 0.20777522
2.0899999 -0.47 0.19988392
2.0899999 -0.49000001 0.19830565
2.0899999 -0.50999999 0.19830565
2.0899999 -0.52999997 0.19988392
2.0899999 -0.55000001 0.21093173
2.0899999 -0.56999999 0.19672741
2.0899999 -0.58999997 0.19830565
2.0899999 -0.61000001 0.19830565
2.0899999 -0.63 0.22355779
2.0899999 -0.64999998 0.19988392
2.0899999 -0.67000002 0.20146216
2.0899999 -0.69 0.19672741
2.0899999 -0.70999998 0.19830565
2.0899999 -0.73000002 0.20461868
2.0899999 -0.75 0.21882303
2.0899999 -0.76999998 0.21724476
2.0899999 -0.79000002 0.18725784
2.0899999 -0.81 0.19988392
nan nan nan
nan nan nan
nan nan nan
nan nan nan
nan nan nan
nan nan nan
nan nan nan
nan nan nan
2.0899999 -0.99000001 -0.13312864
2.0699999 0.99000001 -0.10471998
2.0699999 0.97000003 -0.098406948
2.0699999 0.94999999 -0.10945476
2.0699999 0.93000001 -0.1078765
2.0699999 0.91000003 -0.11103302
2.0699999 0.88999999 -0.12050257
2.0699999 0.87 -0.1189243
2.0699999 0.85000002 -0.088937394
2.0699999 0.82999998 -0.11576779
2.0699999 0.81 -0.1078765
2.0699999 0.79000002 -0.11261128
nan nan nan
nan nan nan
nan nan nan
nan nan nan
nan nan nan
nan nan nan
nan nan nan
nan nan nan
2.0699999 0.61000001 0.2267143
2.0699999 0.58999997 0.21882303
2.0699999 0.56999999 0.21250997
2.0699999 0.55000001 0.22829257
2.0699999 0.52999997 0.22829257
2.0699999 0.50999999 0.23934038
2.0699999 0.49000001 0.21882303
2.0699999 0.47 0.22829257
2.0699999 0.44999999 0.22829257
2.0699999 0.43000001 0.22513606
2.0699999 0.41 0.21408825
2.0699999 0.38999999 0.22197954
2.0699999 0.37 0.22197954
2.0699999 0.34999999 0.22197954
2.0699999 0.33000001 0.20304044
2.0699999 0.31 0.21566649
2.0699999 0.28999999 0.21093173
2.0699999 0.27000001 0.23144908
2.0699999 0.25 0.20619695
2.0699999 0.23 0.21408825
2.0699999 0.20999999 0.2267143
2.0699999 0.19 0.22040127
2.0699999 0.17 0.21882303
2.0699999 0.15000001 0.22513606
2.0699999 0.13 0.21882303
2.0699999 0.11 0.21882303
2.0699999 0.090000004 0.21093173
2.0699999 0.07 0.22040127
2.0699999 0.050000001 0.21250997
2.0699999 0.029999999 0.20777522
2.0699999 0.0099999998 0.21250997
2.0699999 -0.0099999998 0.22513606
2.0699999 -0.029999999 0.21093173
2.0699999 -0.050000001 0.22040127
2.0699999 -0.07 0.22513606
2.0699999 -0.090000004 0.20935346
2.0699999 -0.11 0.19988392
2.0699999 -0.13 0.20935346
2.0699999 -0.15000001 0.21093173
2.0699999 -0.17 0.21093173
2.0699999 -0.19 0.21093173
2.0699999 -0.20999999 0.20777522
2.0699999 -0.23 0.22355779
2.0699999 -0.25 0.21093173
2.0699999 -0.27000001 0.22513606
2.0699999 -0.28999999 0.19514914
2.0699999 -0.31 0.19672741
2.0699999 -0.33000001 0.21566649
2.0699999 -0.34999999 0.21566649
2.0699999 -0.37 0.20304044
2.0699999 -0.38999999 0.22513606
2.0699999 -0.41 0.20777522
2.0699999 -0.43000001 0.19199263
2.0699999 -0.44999999 0.20461868
2.0699999 -0.47 0.20619695
2.0699999 -0.49000001 0.22197954
2.0699999 -0.50999999 0.19830565
2.0699999 -0.52999997 0.19514914
2.0699999 -0.55000001 0.19830565
2.0699999 -0.56999999 0.21250997
2.0699999 -0.58999997 0.21250997
2.0699999 -0.61000001 0.21093173
2.0699999 -0.63 0.22197954
2.0699999 -0.64999998 0.20461868
2.0699999 -0.67000002 0.19041435
2.0699999 -0.69 0.18883611
2.0699999 -0.70999998 0.19830565
2.0699999 -0.73000002 0.20461868
2.0699999 -0.75 0.20619695
2.0699999 -0.76999998 0.21093173
2.0699999 -0.79000002 0.19830565
nan nan nan
nan nan nan
nan nan nan
nan nan nan
nan nan nan
nan nan nan
nan nan nan
nan nan nan
nan nan nan
nan nan nan
2.05 0.99000001 -0.10471998
2.05 0.97000003 -0.10156347
2.05 0.94999999 -0.098406948
2.05 0.93000001 -0.1078765
2.05 0.91000003 -0.10471998
2.05 0.88999999 -0.096828684
2.05 0.87 -0.11418954
2.05 0.85000002 -0.1078765
2.05 0.82999998 -0.1189243
2.05 0.81 -0.10629824
2.05 0.79000002 -0.090515658
nan nan nan
nan nan nan
nan nan nan
nan nan nan
nan nan nan
nan nan nan
nan nan nan
nan nan nan
2.05 0.61000001 0.22040127
2.05 0.58999997 0.22040127
2.05 0.56999999 0.23144908
2.05 0.55000001 0.22355779
2.05 0.52999997 0.22513606
2.05 0.50999999 0.21093173
2.05 0.49000001 0.22040127
2.05 0.47 0.22355779
2.05 0.44999999 0.21566649
2.05 0.43000001 0.22197954
2.05 0.41 0.20935346
2.05 0.38999999 0.21566649
2.05 0.37 0.22355779
2.05 0.34999999 0.21882303
2.05 0.33000001 0.2267143
2.05 0.31 0.22355779
2.05 0.28999999 0.22197954
2.05 0.27000001 0.19830565
2.05 0.25 0.21250997
2.05 0.23 0.21724476
2.05 0.20999999 0.22987084
2.05 0.19 0.22829257
2.05 0.17 0.21724476
2.05 0.15000001 0.22040127
2.05 0.13 0.21882303
2.05 0.11 0.22197954
2.05 0.090000004 0.22197954
2.05 0.07 0.21566649
2.05 0.050000001 0.20619695
2.05 0.029999999 0.21408825
2.05 0.0099999998 0.21724476
2.05 -0.0099999998 0.22040127
2.05 -0.029999999 0.22040127
2.05 -0.050000001 0.20619695
2.05 -0.07 0.20619695
2.05 -0.090000004 0.20304044
2.05 -0.11 0.21566649
2.05 -0.13 0.21250997
2.05 -0.15000001 0.21093173
2.05 -0.17 0.21093173
2.05 -0.19 0.20935346
2.05 -0.20999999 0.2267143
2.05 -0.23 0.21724476
2.05 -0.25 0.20777522
2.05 -0.27000001 0.18094482
2.05 -0.28999999 0.19830565
2.05 -0.31 0.21882303
2.05 -0.33000001 0.20304044
2.05 -0.34999999 0.20146216
2.05 -0.37 0.20461868
2.05 -0.38999999 0.21724476
2.05 -0.41 0.19988392
2.05 -0.43000001 0.19988392
2.05 -0.44999999 0.21250997
2.05 -0.47 0.18725784
2.05 -0.49000001 0.21093173
2.05 -0.50999999 0.20304044
2.05 -0.52999997 0.19672741
2.05 -0.55000001 0.20777522
2.05 -0.56999999 0.21250997
2.05 -0.58999997 0.20619695
2.05 -0.61000001 0.21882303
2.05 -0.63 0.21408825
2.05 -0.64999998 0.1856796
2.05 -0.67000002 0.21250997
2.05 -0.69 0.19041435
2.05 -0.70999998 0.20461868
2.05 -0.73000002 0.20146216
2.05 -0.75 0.19988392
2.05 -0.76999998 0.20461868
2.05 -0.79000002 0.20619695
nan nan nan
nan nan nan
nan nan nan
nan nan nan
nan nan nan
nan nan nan
nan nan nan
nan nan nan
nan nan nan
2.05 -0.99000001 -0.1347069
2.03 0.99000001 -0.10629824
2.03 0.97000003 -0.099985212
2.03 0.94999999 -0.098406948
2.03 0.93000001 -0.096828684
2.03 0.91000003 -0.11103302
2.03 0.88999999 -0.096828684
2.03 0.87 -0.10945476
2.03 0.85000002 -0.11103302
2.03 0.82999998 -0.099985212
2.03 0.81 -0.10156347
2.03 0.79000002 -0.096828684
nan nan nan
nan nan nan
nan nan nan
nan nan nan
nan nan nan
nan nan nan
nan nan nan
2.03 0.63 0.21408825
2.03 0.61000001 0.2267143
2.03 0.58999997 0.23302735
2.03 0.56999999 0.2267143
2.03 0.55000001 0.22829257
2.03 0.52999997 0.22987084
2.03 0.50999999 0.23144908
2.03 0.49000001 0.21408825
2.03 0.47 0.22829257
2.03 0.44999999 0.21724476
2.03 0.43000001 0.2267143
2.03 0.41 0.21724476
2.03 0.38999999 0.22829257
2.03 0.37 0.22829257
2.03 0.34999999 0.21093173
2.03 0.33000001 0.22513606
2.03 0.31 0.22513606
2.03 0.28999999 0.22040127
2.03 0.27000001 0.22040127
2.03 0.25 0.22355779
2.03 0.23 0.22355779
2.03 0.20999999 0.2267143
2.03 0.19 0.22829257
2.03 0.17 0.22513606
2.03 0.15000001 0.22829257
2.03 0.13 0.22829257
2.03 0.11 0.22829257
2.03 0.090000004 0.20777522
2.03 0.07 0.20935346
2.03 0.050000001 0.20935346
2.03 0.029999999 0.22040127
2.03 0.0099999998 0.22040127
2.03 -0.0099999998 0.22829257
2.03 -0.029999999 0.22197954
2.03 -0.050000001 0.20619695
2.03 -0.07 0.20777522
2.03 -0.090000004 0.20777522
2.03 -0.11 0.20935346
2.03 -0.13 0.21408825
2.03 -0.15000001 0.22197954
2.03 -0.17 0.21566649
2.03 -0.19 0.21566649
2.03 -0.20999999 0.2267143
2.03 -0.23 0.21250997
2.03 -0.25 0.21408825
2.03 -0.27000001 0.20777522
2.03 -0.28999999 0.19988392
2.03 -0.31 0.19830565
2.03 -0.33000001 0.20461868
2.03 -0.34999999 0.20935346
2.03 -0.37 0.21093173
2.03 -0.38999999 0.22197954
2.03 -0.41 0.21724476
2.03 -0.43000001 0.20619695
2.03 -0.44999999 0.20777522
2.03 -0.47 0.20146216
2.03 -0.49000001 0.21250997
2.03 -0.50999999 0.20935346
2.03 -0.52999997 0.19830565
2.03 -0.55000001 0.21250997
2.03 -0.56999999 0.21250997
2.03 -0.58999997 0.20935346
2.03 -0.61000001 0.21093173
2.03 -0.63 0.21250997
2.03 -0.64999998 0.20777522
2.03 -0.67000002 0.20777522
2.03 -0.69 0.20777522
2.03 -0.70999998 0.20777522
2.03 -0.73000002 0.20304044
2.03 -0.75 0.18725784
2.03 -0.76999998 0.20619695
2.03 -0.79000002 0.22197954
nan nan nan
nan nan nan
nan nan nan
nan nan nan
nan nan nan
nan nan nan
nan nan nan
nan nan nan
nan nan nan
2.03 -0.99000001 -0.1189243
2.01 0.99000001 -0.098406948
2.01 0.97000003 -0.098406948
2.01 0.94999999 -0.098406948
2.01 0.93000001 -0.098406948
2.01 0.91000003 -0.10945476
2.01 0.88999999 -0.10156347
2.01 0.87 -0.095250428
2.01 0.85000002 -0.10314173
2.01 0.82999998 -0.095250428
2.01 0.81 -0.11418954
2.01 0.79000002 -0.096828684
nan nan nan
nan nan nan
nan nan nan
nan nan nan
nan nan nan
nan nan nan
nan nan nan
nan nan nan
2.01 0.61000001 0.2267143
2.01 0.58999997 0.22987084
2.01 0.56999999 0.23144908
2.01 0.55000001 0.22987084
2.01 0.52999997 0.22513606
2.01 0.50999999 0.23618387
2.01 0.49000001 0.22829257
2.01 0.47 0.22197954
2.01 0.44999999 0.22040127
2.01 0.43000001 0.23144908
2.01 0.41 0.23144908
2.01 0.38999999 0.2267143
2.01 0.37 0.22513606
2.01 0.34999999 0.22513606
2.01 0.33000001 0.22197954
2.01 0.31 0.22355779
2.01 0.28999999 0.22040127
2.01 0.27000001 0.22040127
2.01 0.25 0.22355779
2.01 0.23 0.22355779
2.01 0.20999999 0.22829257
2.01 0.19 0.23776211
2.01 0.17 0.23144908
2.01 0.15000001 0.2267143
2.01 0.13 0.21724476
2.01 0.11 0.23144908
2.01 0.090000004 0.2346056
2.01 0.07 0.20619695
2.01 0.050000001 0.22040127
2.01 0.029999999 0.22197954
2.01 0.0099999998 0.21882303
2.01 -0.0099999998 0.22197954
2.01 -0.029999999 0.21724476
2.01 -0.050000001 0.21250997
2.01 -0.07 0.21408825
2.01 -0.090000004 0.21724476
2.01 -0.11 0.21250997
2.01 -0.13 0.22355779
2.01 -0.15000001 0.20304044
2.01 -0.17 0.21882303
2.01 -0.19 0.22355779
2.01 -0.20999999 0.22355779
2.01 -0.23 0.20619695
2.01 -0.25 0.20146216
2.01 -0.27000001 0.22829257
2.01 -0.28999999 0.22829257
2.01 -0.31 0.22829257
2.01 -0.33000001 0.22513606
2.01 -0.34999999 0.20777522
2.01 -0.37 0.21566649
2.01 -0.38999999 0.19672741
2.01 -0.41 0.19830565
2.01 -0.43000001 0.21566649
2.01 -0.44999999 0.20619695
2.01 -0.47 0.19988392
2.01 -0.49000001 0.21724476
2.01 -0.50999999 0.21724476
2.01 -0.52999997 0.20619695
2.01 -0.55000001 0.22040127
2.01 -0.56999999 0.21566649
2.01 -0.58999997 0.20619695
2.01 -0.61000001 0.21093173
2.01 -0.63 0.21093173
2.01 -0.64999998 0.21250997
2.01 -0.67000002 0.21093173
2.01 -0.69 0.21724476
2.01 -0.70999998 0.20461868
2.01 -0.73000002 0.20146216
2.01 -0.75 0.20619695
2.01 -0.76999998 0.21093173
2.01 -0.79000002 0.19988392
nan nan nan
nan nan nan
nan nan nan
nan nan nan
nan nan nan
nan nan nan
nan nan nan
nan nan nan
nan nan nan
2.01 -0.99000001 -0.13312864
1.99 0.99000001 -0.11418954
1.99 0.97000003 -0.10471998
1.99 0.94999999 -0.099985212
1.99 0.93000001 -0.11734605
1.99 0.91000003 -0.12050257
1.99 0.88999999 -0.10945476
1.99 0.87 -0.10945476
1.99 0.85000002 -0.099985212
1.99 0.82999998 -0.10314173
1.99 0.81 -0.10314173
1.99 0.79000002 -0.092093915
nan nan nan
nan nan nan
nan nan nan
nan nan nan
nan nan nan
nan nan nan
nan nan nan
nan nan nan
1.99 0.61000001 0.23618387
1.99 0.58999997 0.22829257
1.99 0.56999999 0.2267143
1.99 0.55000001 0.23934038
1.99 0.52999997 0.23934038
1.99 0.50999999 0.23302735
1.99 0.49000001 0.2346056
1.99 0.47 0.22355779
1.99 0.44999999 0.21566649
1.99 0.43000001 0.23144908
1.99 0.41 0.22987084
1.99 0.38999999 0.22987084
1.99 0.37 0.22355779
1.99 0.34999999 0.22829257
1.99 0.33000001 0.22355779
1.99 0.31 0.22513606
1.99 0.28999999 0.21250997
1.99 0.27000001 0.22197954
1.99 0.25 0.22829257
1.99 0.23 0.2267143
1.99 0.20999999 0.23144908
1.99 0.19 0.23302735
1.99 0.17 0.23776211
1.99 0.15000001 0.23776211
1.99 0.13 0.21724476
1.99 0.11 0.21724476
1.99 0.090000004 0.22040127
1.99 0.07 0.21408825
1.99 0.050000001 0.22355779
1.99 0.029999999 0.2267143
1.99 0.0099999998 0.21882303
1.99 -0.0099999998 0.21882303
1.99 -0.029999999 0.22197954
1.99 -0.050000001 0.21566649
1.99 -0.07 0.21408825
1.99 -0.090000004 0.21250997
1.99 -0.11 0.21408825
1.99 -0.13 0.21250997
1.99 -0.15000001 0.20619695
1.99 -0.17 0.21724476
1.99 -0.19 0.22829257
1.99 -0.20999999 0.22829257
1.99 -0.23 0.22355779
1.99 -0.25 0.22197954
1.99 -0.27000001 0.22987084
1.99 -0.28999999 0.22987084
1.99 -0.31 0.20304044
1.99 -0.33000001 0.19514914
1.99 -0.34999999 0.22197954
1.99 -0.37 0.21408825
1.99 -0.38999999 0.2267143
1.99 -0.41 0.21566649
1.99 -0.43000001 0.21408825
1.99 -0.44999999 0.21250997
1.99 -0.47 0.20935346
1.99 -0.49000001 0.21724476
1.99 -0.50999999 0.21408825
1.99 -0.52999997 0.22513606
1.99 -0.55000001 0.21882303
1.99 -0.56999999 0.22197954
1.99 -0.58999997 0.21408825
1.99 -0.61000001 0.21250997
1.99 -0.63 0.21408825
1.99 -0.64999998 0.21882303
1.99 -0.67000002 0.20146216
1.99 -0.69 0.21250997
1.99 -0.70999998 0.20935346
1.99 -0.73000002 0.20935346
1.99 -0.75 0.20935346
1.99 -0.76999998 0.21250997
1.99 -0.79000002 0.19041435
nan nan nan
nan nan nan
nan nan nan
nan nan nan
nan nan nan
nan nan nan
nan nan nan
nan nan nan
1.99 -0.97000003 -0.099985212
1.99 -0.99000001 -0.10471998
1.97 0.99000001 -0.082624361
1.97 0.97000003 -0.10629824
1.97 0.94999999 -0.098406948
1.97 0.93000001 -0.10314173
1.97 0.91000003 -0.1078765
1.97 0.88999999 -0.098406948
1.97 0.87 -0.10471998
1.97 0.85000002 -0.10314173
1.97 0.82999998 -0.092093915
1.97 0.81 -0.13155037
1.97 0.79000002 -0.090515658
nan nan nan
nan nan nan
nan nan nan
nan nan nan
nan nan nan
nan nan nan
1.97 0.64999998 0.21724476
1.97 0.63 0.22829257
1.97 0.61000001 0.23618387
1.97 0.58999997 0.22040127
1.97 0.56999999 0.22513606
1.97 0.55000001 0.22987084
1.97 0.52999997 0.22987084
1.97 0.50999999 0.23144908
1.97 0.49000001 0.23144908
1.97 0.47 0.23934038
1.97 0.44999999 0.22355779
1.97 0.43000001 0.23144908
1.97 0.41 0.22987084
1.97 0.38999999 0.22513606
1.97 0.37 0.22355779
1.97 0.34999999 0.23144908
1.97 0.33000001 0.2267143
1.97 0.31 0.2267143
1.97 0.28999999 0.22829257
1.97 0.27000001 0.22829257
1.97 0.25 0.23302735
1.97 0.23 0.22829257
1.97 0.20999999 0.2267143
1.97 0.19 0.22513606
1.97 0.17 0.22513606
1.97 0.15000001 0.22829257
1.97 0.13 0.2267143
1.97 0.11 0.22355779
1.97 0.090000004 0.22197954
1.97 0.07 0.21724476
1.97 0.050000001 0.23302735
1.97 0.029999999 0.23302735
1.97 0.0099999998 0.22513606
1.97 -0.0099999998 0.22197954
1.97 -0.029999999 0.23144908
1.97 -0.050000001 0.23144908
1.97 -0.07 0.21724476
1.97 -0.090000004 0.21724476
1.97 -0.11 0.20619695
1.97 -0.13 0.21250997
1.97 -0.15000001 0.21093173
1.97 -0.17 0.22355779
1.97 -0.19 0.21250997
1.97 -0.20999999 0.21093173
1.97 -0.23 0.21724476
1.97 -0.25 0.21408825
1.97 -0.27000001 0.22040127
1.97 -0.28999999 0.20935346
1.97 -0.31 0.22040127
1.97 -0.33000001 0.22040127
1.97 -0.34999999 0.21566649
1.97 -0.37 0.20461868
1.97 -0.38999999 0.22040127
1.97 -0.41 0.20461868
1.97 -0.43000001 0.22355779
1.97 -0.44999999 0.21408825
1.97 -0.47 0.21408825
1.97 -0.49000001 0.22040127
1.97 -0.50999999 0.22197954
1.97 -0.52999997 0.22197954
1.97 -0.55000001 0.20935346
1.97 -0.56999999 0.22040127
1.97 -0.58999997 0.21093173
1.97 -0.61000001 0.21566649
1.97 -0.63 0.20777522
1.97 -0.64999998 0.22829257
1.97 -0.67000002 0.21724476
1.97 -0.69 0.21882303
1.97 -0.70999998 0.21882303
1.97 -0.73000002 0.19672741
1.97 -0.75 0.21566649
1.97 -0.76999998 0.21566649
1.97 -0.79000002 0.21408825
nan nan nan
nan nan nan
nan nan nan
nan nan nan
nan nan nan
nan nan nan
nan nan nan
nan nan nan
nan nan nan
1.97 -0.99000001 -0.1347069
1.95 0.99000001 -0.074733071
1.95 0.97000003 -0.11261128
1.95 0.94999999 -0.090515658
1.95 0.93000001 -0.11734605
1.95 0.91000003 -0.11418954
1.95 0.88999999 -0.10314173
1.95 0.87 -0.092093915
1.95 0.85000002 -0.10471998
1.95 0.82999998 -0.10945476
1.95 0.81 -0.10629824
1.95 0.79000002 -0.10629824
nan nan nan
nan nan nan
nan nan nan
nan nan nan
nan nan nan
nan nan nan
nan nan nan
1.95 0.63 0.22987084
1.95 0.61000001 0.23302735
1.95 0.58999997 0.22197954
1.95 0.56999999 0.2346056
1.95 0.55000001 0.23934038
1.95 0.52999997 0.24723168
1.95 0.50999999 0.23618387
1.95 0.49000001 0.23776211
1.95 0.47 0.23618387
1.95 0.44999999 0.23144908
1.95 0.43000001 0.22987084
1.95 0.41 0.22829257
1.95 0.38999999 0.23618387
1.95 0.37 0.2346056
1.95 0.34999999 0.23302735
1.95 0.33000001 0.22513606
1.95 0.31 0.2267143
1.95 0.28999999 0.23144908
1.95 0.27000001 0.23618387
1.95 0.25 0.2346056
1.95 0.23 0.2267143
1.95 0.20999999 0.22355779
1.95 0.19 0.22829257
1.95 0.17 0.22355779
1.95 0.15000001 0.23302735
1.95 0.13 0.22987084
1.95 0.11 0.22987084
1.95 0.090000004 0.2267143
1.95 0.07 0.22513606
1.95 0.050000001 0.22987084
1.95 0.029999999 0.23618387
1.95 0.0099999998 0.22987084
1.95 -0.0099999998 0.2267143
1.95 -0.029999999 0.23302735
1.95 -0.050000001 0.22197954
1.95 -0.07 0.22197954
1.95 -0.090000004 0.23302735
1.95 -0.11 0.22040127
1.95 -0.13 0.21408825
1.95 -0.15000001 0.21408825
1.95 -0.17 0.21724476
1.95 -0.19 0.22197954
1.95 -0.20999999 0.21566649
1.95 -0.23 0.20461868
1.95 -0.25 0.21566649
1.95 -0.27000001 0.21093173
1.95 -0.28999999 0.22355779
1.95 -0.31 0.22513606
1.95 -0.33000001 0.21408825
1.95 -0.34999999 0.21408825
1.95 -0.37 0.22987084
1.95 -0.38999999 0.21724476
1.95 -0.41 0.20935346
1.95 -0.43000001 0.22197954
1.95 -0.44999999 0.21724476
1.95 -0.47 0.22040127
1.95 -0.49000001 0.21093173
1.95 -0.50999999 0.21566649
1.95 -0.52999997 0.21724476
1.95 -0.55000001 0.21724476
1.95 -0.56999999 0.21882303
1.95 -0.58999997 0.21566649
1.95 -0.61000001 0.21566649
1.95 -0.63 0.21093173
1.95 -0.64999998 0.20777522
1.95 -0.67000002 0.21093173
1.95 -0.69 0.20935346
1.95 -0.70999998 0.21408825
1.95 -0.73000002 0.22040127
1.95 -0.75 0.21566649
1.95 -0.76999998 0.21408825
1.95 -0.79000002 0.21093173
nan nan nan
nan nan nan
nan nan nan
nan nan nan
nan nan nan
nan nan nan
nan nan nan
nan nan nan
nan nan nan
1.95 -0.99000001 -0.12839386
1.9299999 0.99000001 -0.077889584
1.9299999 0.97000003 -0.10156347
1.9299999 0.94999999 -0.088937394
1.9299999 0.93000001 -0.092093915
1.9299999 0.91000003 -0.090515658
1.9299999 0.88999999 -0.12208083
1.9299999 0.87 -0.12365909
1.9299999 0.85000002 -0.10471998
1.9299999 0.82999998 -0.10471998
1.9299999 0.81 -0.1078765
1.9299999 0.79000002 -0.10629824
1.9299999 0.76999998 -0.096828684
nan nan nan
nan nan nan
nan nan nan
nan nan nan
nan nan nan
nan nan nan
1.9299999 0.63 0.20304044
1.9299999 0.61000001 0.2346056
1.9299999 0.58999997 0.16358398
1.9299999 0.56999999 0.16516222
1.9299999 0.55000001 0.15884919
1.9299999 0.52999997 0.2267143
1.9299999 0.50999999 0.22829257
1.9299999 0.49000001 0.24249689
1.9299999 0.47 0.24091862
1.9299999 0.44999999 0.2267143
1.9299999 0.43000001 0.23618387
1.9299999 0.41 0.22829257
1.9299999 0.38999999 0.2267143
1.9299999 0.37 0.22829257
1.9299999 0.34999999 0.22829257
1.9299999 0.33000001 0.21093173
1.9299999 0.31 0.20777522
1.9299999 0.28999999 0.24249689
1.9299999 0.27000001 0.23618387
1.9299999 0.25 0.20619695
1.9299999 0.23 0.21250997
1.9299999 0.20999999 0.16516222
1.9299999 0.19 0.22513606
1.9299999 0.17 0.20146216
1.9299999 0.15000001 0.22987084
1.9299999 0.13 0.2267143
1.9299999 0.11 0.2267143
1.9299999 0.090000004 0.22355779
1.9299999 0.07 0.2267143
1.9299999 0.050000001 0.21250997
1.9299999 0.029999999 0.2267143
1.9299999 0.0099999998 0.22829257
1.9299999 -0.0099999998 0.22829257
1.9299999 -0.029999999 0.22513606
1.9299999 -0.050000001 0.22513606
1.9299999 -0.07 0.23144908
1.9299999 -0.090000004 0.22829257
1.9299999 -0.11 0.22829257
1.9299999 -0.13 0.21093173
1.9299999 -0.15000001 0.20461868
1.9299999 -0.17 0.21093173
1.9299999 -0.19 0.16200571
1.9299999 -0.20999999 0.20146216
1.9299999 -0.23 0.20461868
1.9299999 -0.25 0.21250997
1.9299999 -0.27000001 0.22355779
1.9299999 -0.28999999 0.20619695
1.9299999 -0.31 0.22355779
1.9299999 -0.33000001 0.095718861
1.9299999 -0.34999999 0.22355779
1.9299999 -0.37 0.20146216
1.9299999 -0.38999999 0.20777522
1.9299999 -0.41 0.21093173
1.9299999 -0.43000001 0.21250997
1.9299999 -0.44999999 0.21093173
1.9299999 -0.47 0.21093173
1.9299999 -0.49000001 0.21566649
1.9299999 -0.50999999 0.22355779
1.9299999 -0.52999997 0.21882303
1.9299999 -0.55000001 0.21408825
1.9299999 -0.56999999 0.21566649
1.9299999 -0.58999997 0.22197954
1.9299999 -0.61000001 0.22040127
1.9299999 -0.63 0.20935346
1.9299999 -0.64999998 0.22355779
1.9299999 -0.67000002 0.22355779
1.9299999 -0.69 0.20777522
1.9299999 -0.70999998 0.21566649
1.9299999 -0.73000002 0.087827563
1.9299999 -0.75 0.21882303
1.9299999 -0.76999998 0.21408825
1.9299999 -0.79000002 0.21724476
1.9299999 -0.81 0.19041435
nan nan nan
nan nan nan
nan nan nan
nan nan nan
nan nan nan
nan nan nan
nan nan nan
nan nan nan
1.9299999 -0.99000001 -0.1268156
1.91 0.99000001 -0.10314173
1.91 0.97000003 -0.10314173
1.91 0.94999999 -0.095250428
1.91 0.93000001 -0.093672171
1.91 0.91000003 -0.092093915
1.91 0.88999999 -0.096828684
1.91 0.87 -0.11103302
1.91 0.85000002 -0.10156347
1.91 0.82999998 -0.098406948
1.91 0.81 -0.081046104
1.91 0.79000002 -0.098406948
1.91 0.76999998 -0.098406948
nan nan nan
nan nan nan
nan nan nan
nan nan nan
nan nan nan
1.91 0.64999998 0.083092794
1.91 0.63 0.14622314
1.91 0.61000001 0.12097101
1.91 0.58999997 0.13359706
1.91 0.56999999 0.13359706
1.91 0.55000001 0.14937966
1.91 0.52999997 0.1935709
1.91 0.50999999 0.15411441
1.91 0.49000001 0.13991009
1.91 0.47 0.13991009
1.91 0.44999999 0.13991009
1.91 0.43000001 0.13359706
1.91 0.41 0.11939274
1.91 0.38999999 0.13044055
1.91 0.37 0.12886228
1.91 0.34999999 0.13675357
1.91 0.33000001 0.13359706
1.91 0.31 0.13201879
1.91 0.28999999 0.15727095
1.91 0.27000001 0.13991009
1.91 0.25 0.13517533
1.91 0.23 0.13675357
1.91 0.20999999 0.11781447
1.91 0.19 0.13517533
1.91 0.17 0.13833185
1.91 0.15000001 0.17463179
1.91 0.13 0.11465795
1.91 0.11 0.13517533
1.91 0.090000004 0.13675357
1.91 0.07 0.13201879
1.91 0.050000001 0.13201879
1.91 0.029999999 0.11781447
1.91 0.0099999998 0.11307971
1.91 -0.0099999998 0.13359706
1.91 -0.029999999 0.13201879
1.91 -0.050000001 0.13359706
1.91 -0.07 0.11623622
1.91 -0.090000004 0.11465795
1.91 -0.11 0.13044055
1.91 -0.13 0.13359706
1.91 -0.15000001 0.12886228
1.91 -0.17 0.13359706
1.91 -0.19 0.13359706
1.91 -0.20999999 0.11939274
1.91 -0.23 0.12097101
1.91 -0.25 0.12097101
1.91 -0.27000001 0.10045363
1.91 -0.28999999 0.10676666
1.91 -0.31 0.1099232
1.91 -0.33000001 0.090984091
1.91 -0.34999999 0.13517533
1.91 -0.37 0.13517533
1.91 -0.38999999 0.13517533
1.91 -0.41 0.11465795
1.91 -0.43000001 0.11781447
1.91 -0.44999999 0.13201879
1.91 -0.47 0.13201879
1.91 -0.49000001 0.11623622
1.91 -0.50999999 0.13517533
1.91 -0.52999997 0.092562348
1.91 -0.55000001 0.17305352
1.91 -0.56999999 0.17621003
1.91 -0.58999997 0.10045363
1.91 -0.61000001 0.11623622
1.91 -0.63 0.13991009
1.91 -0.64999998 0.17463179
1.91 -0.67000002 0.15569268
1.91 -0.69 0.1020319
1.91 -0.70999998 0.1020319
1.91 -0.73000002 0.097297117
1.91 -0.75 0.11150144
1.91 -0.76999998 0.11307971
1.91 -0.79000002 0.13517533
1.91 -0.81 0.15253617
nan nan nan
nan nan nan
nan nan nan
nan nan nan
nan nan nan
nan nan nan
nan nan nan
1.91 -0.97000003 -0.12839386
1.91 -0.99000001 -0.13628516
1.89 0.99000001 -0.088937394
1.89 0.97000003 -0.088937394
1.89 0.94999999 -0.093672171
1.89 0.93000001 -0.10314173
1.89 0.91000003 -0.10471998
1.89 0.88999999 -0.085780881
1.89 0.87 -0.082624361
1.89 0.85000002 -0.10156347
1.89 0.82999998 -0.11734605
1.89 0.81 -0.1189243
1.89 0.79000002 -0.093672171
1.89 0.76999998 -0.10314173
nan nan nan
nan nan nan
nan nan nan
nan nan nan
nan nan nan
1.89 0.64999998 0.076779753
1.89 0.63 0.12886228
1.89 0.61000001 0.11781447
1.89 0.58999997 0.12412752
1.89 0.56999999 0.10834493
1.89 0.55000001 0.1099232
1.89 0.52999997 0.12570576
1.89 0.50999999 0.11623622
1.89 0.49000001 0.12570576
1.89 0.47 0.13991009
1.89 0.44999999 0.13675357
1.89 0.43000001 0.12728404
1.89 0.41 0.13201879
1.89 0.38999999 0.11150144
1.89 0.37 0.11150144
1.89 0.34999999 0.13044055
1.89 0.33000001 0.12728404
1.89 0.31 0.12412752
1.89 0.28999999 0.12570576
1.89 0.27000001 0.13044055
1.89 0.25 0.12412752
1.89 0.23 0.12097101
1.89 0.20999999 0.14464487
1.89 0.19 0.12254925
1.89 0.17 0.12412752
1.89 0.15000001 0.12570576
1.89 0.13 0.12254925
1.89 0.11 0.12097101
1.89 0.090000004 0.1099232
1.89 0.07 0.11781447
1.89 0.050000001 0.12254925
1.89 0.029999999 0.11781447
1.89 0.0099999998 0.10834493
1.89 -0.0099999998 0.1099232
1.89 -0.029999999 0.11150144
1.89 -0.050000001 0.11150144
1.89 -0.07 0.11781447
1.89 -0.090000004 0.11939274
1.89 -0.11 0.12097101
1.89 -0.13 0.12097101
1.89 -0.15000001 0.12570576
1.89 -0.17 0.12570576
1.89 -0.19 0.11623622
1.89 -0.20999999 0.12412752
1.89 -0.23 0.12728404
1.89 -0.25 0.12097101
1.89 -0.27000001 0.10518841
1.89 -0.28999999 0.10361014
1.89 -0.31 0.095718861
1.89 -0.33000001 0.10045363
1.89 -0.34999999 0.10676666
1.89 -0.37 0.1099232
1.89 -0.38999999 0.1099232
1.89 -0.41 0.10361014
1.89 -0.43000001 0.12254925
1.89 -0.44999999 0.12254925
1.89 -0.47 0.095718861
1.89 -0.49000001 0.169897
1.89 -0.50999999 0.10361014
1.89 -0.52999997 0.10676666
1.89 -0.55000001 0.10676666
1.89 -0.56999999 0.1020319
1.89 -0.58999997 0.10045363
1.89 -0.61000001 0.10676666
1.89 -0.63 0.10676666
1.89 -0.64999998 0.11623622
1.89 -0.67000002 0.1099232
1.89 -0.69 0.1020319
1.89 -0.70999998 0.1020319
1.89 -0.73000002 0.1020319
1.89 -0.75 0.11150144
1.89 -0.76999998 0.11939274
1.89 -0.79000002 0.12097101
nan nan nan
nan nan nan
nan nan nan
nan nan nan
nan nan nan
nan nan nan
nan nan nan
nan nan nan
nan nan nan
1.89 -0.99000001 -0.14575471
1.87 0.99000001 -0.090515658
1.87 0.97000003 -0.11418954
1.87 0.94999999 -0.1078765
1.87 0.93000001 -0.10629824
1.87 0.91000003 -0.10945476
1.87 0.88999999 -0.10471998
1.87 0.87 -0.11261128
1.87 0.85000002 -0.099985212
1.87 0.82999998 -0.10629824
1.87 0.81 -0.095250428
1.87 0.79000002 -0.098406948
1.87 0.76999998 -0.1078765
1.87 0.75 -0.12523735
nan nan nan
nan nan nan
nan nan nan
nan nan nan
nan nan nan
1.87 0.63 0.11939274
1.87 0.61000001 0.11307971
1.87 0.58999997 0.11939274
1.87 0.56999999 0.11150144
1.87 0.55000001 0.11150144
1.87 0.52999997 0.12886228
1.87 0.50999999 0.12570576
1.87 0.49000001 0.11623622
1.87 0.47 0.11781447
1.87 0.44999999 0.10361014
1.87 0.43000001 0.11939274
1.87 0.41 0.13359706
1.87 0.38999999 0.11307971
1.87 0.37 0.11781447
1.87 0.34999999 0.12412752
1.87 0.33000001 0.13359706
1.87 0.31 0.11781447
1.87 0.28999999 0.12254925
1.87 0.27000001 0.13044055
1.87 0.25 0.11307971
1.87 0.23 0.12097101
1.87 0.20999999 0.12728404
1.87 0.19 0.11307971
1.87 0.17 0.11465795
1.87 0.15000001 0.10518841
1.87 0.13 0.10518841
1.87 0.11 0.12728404
1.87 0.090000004 0.13044055
1.87 0.07 0.11465795
1.87 0.050000001 0.11781447
1.87 0.029999999 0.11307971
1.87 0.0099999998 0.12254925
1.87 -0.0099999998 0.11465795
1.87 -0.029999999 0.1099232
1.87 -0.050000001 0.10834493
1.87 -0.07 0.10676666
1.87 -0.090000004 0.12097101
1.87 -0.11 0.12097101
1.87 -0.13 0.12728404
1.87 -0.15000001 0.12254925
1.87 -0.17 0.13201879
1.87 -0.19 0.12254925
1.87 -0.20999999 0.11465795
1.87 -0.23 0.090984091
1.87 -0.25 0.094140604
1.87 -0.27000001 0.10676666
1.87 -0.28999999 0.10518841
1.87 -0.31 0.098875374
1.87 -0.33000001 0.10518841
1.87 -0.34999999 0.097297117
1.87 -0.37 0.10676666
1.87 -0.38999999 0.11150144
1.87 -0.41 0.11465795
1.87 -0.43000001 0.11150144
1.87 -0.44999999 0.11150144
1.87 -0.47 0.10361014
1.87 -0.49000001 0.1099232
1.87 -0.50999999 0.1099232
1.87 -0.52999997 0.11307971
1.87 -0.55000001 0.10676666
1.87 -0.56999999 0.1020319
1.87 -0.58999997 0.11307971
1.87 -0.61000001 0.10676666
1.87 -0.63 0.11150144
1.87 -0.64999998 0.1020319
1.87 -0.67000002 0.10045363
1.87 -0.69 0.10834493
1.87 -0.70999998 0.10361014
1.87 -0.73000002 0.10361014
1.87 -0.75 0.10361014
1.87 -0.76999998 0.10361014
1.87 -0.79000002 0.11623622
nan nan nan
nan nan nan
nan nan nan
nan nan nan
nan nan nan
nan nan nan
nan nan nan
1.87 -0.94999999 -0.1347069
1.87 -0.97000003 -0.14101993
1.87 -0.99000001 -0.1347069
1.85 0.99000001 -0.10629824
1.85 0.97000003 -0.11261128
1.85 0.94999999 -0.10156347
1.85 0.93000001 -0.087359138
1.85 0.91000003 -0.099985212
1.85 0.88999999 -0.10314173
1.85 0.87 -0.098406948
1.85 0.85000002 -0.096828684
1.85 0.82999998 -0.10314173
1.85 0.81 -0.10314173
1.85 0.79000002 -0.099985212
1.85 0.76999998 -0.10314173
1.85 0.75 -0.11576779
nan nan nan
nan nan nan
nan nan nan
nan nan nan
nan nan nan
1.85 0.63 0.11465795
1.85 0.61000001 0.13201879
1.85 0.58999997 0.12254925
1.85 0.56999999 0.12412752
1.85 0.55000001 0.12412752
1.85 0.52999997 0.13359706
1.85 0.50999999 0.13359706
1.85 0.49000001 0.12254925
1.85 0.47 0.1099232
1.85 0.44999999 0.1099232
1.85 0.43000001 0.11150144
1.85 0.41 0.12570576
1.85 0.38999999 0.13044055
1.85 0.37 0.12254925
1.85 0.34999999 0.12886228
1.85 0.33000001 0.12886228
1.85 0.31 0.11939274
1.85 0.28999999 0.12097101
1.85 0.27000001 0.12728404
1.85 0.25 0.1099232
1.85 0.23 0.10676666
1.85 0.20999999 0.11150144
1.85 0.19 0.12412752
1.85 0.17 0.11150144
1.85 0.15000001 0.11150144
1.85 0.13 0.1099232
1.85 0.11 0.11939274
1.85 0.090000004 0.11307971
1.85 0.07 0.11623622
1.85 0.050000001 0.1099232
1.85 0.029999999 0.11623622
1.85 0.0099999998 0.12728404
1.85 -0.0099999998 0.11781447
1.85 -0.029999999 0.11623622
1.85 -0.050000001 0.1099232
1.85 -0.07 0.11939274
1.85 -0.090000004 0.12570576
1.85 -0.11 0.12570576
1.85 -0.13 0.12412752
1.85 -0.15000001 0.12412752
1.85 -0.17 0.1099232
1.85 -0.19 0.10834493
1.85 -0.20999999 0.10834493
1.85 -0.23 0.094140604
1.85 -0.25 0.068888471
1.85 -0.27000001 0.10518841
1.85 -0.28999999 0.10834493
1.85 -0.31 0.10361014
1.85 -0.33000001 0.1099232
1.85 -0.34999999 0.1099232
1.85 -0.37 0.10834493
1.85 -0.38999999 0.10676666
1.85 -0.41 0.11781447
1.85 -0.43000001 0.1099232
1.85 -0.44999999 0.1099232
1.85 -0.47 0.11623622
1.85 -0.49000001 0.11465795
1.85 -0.50999999 0.11307971
1.85 -0.52999997 0.11150144
1.85 -0.55000001 0.1099232
1.85 -0.56999999 0.1099232
1.85 -0.58999997 0.12254925
1.85 -0.61000001 0.12254925
1.85 -0.63 0.10361014
1.85 -0.64999998 0.11781447
1.85 -0.67000002 0.10676666
1.85 -0.69 0.11150144
1.85 -0.70999998 0.1099232
1.85 -0.73000002 0.10834493
1.85 -0.75 0.10518841
1.85 -0.76999998 0.10518841
1.85 -0.79000002 0.10045363
nan nan nan
nan nan nan
nan nan nan
nan nan nan
nan nan nan
nan nan nan
nan nan nan
1.85 -0.94999999 -0.1268156
1.85 -0.97000003 -0.12365909
1.85 -0.99000001 -0.1189243
1.83 0.99000001 -0.085780881
1.83 0.97000003 -0.11103302
1.83 0.94999999 -0.10314173
1.83 0.93000001 -0.079467848
1.83 0.91000003 -0.093672171
1.83 0.88999999 -0.10471998
1.83 0.87 -0.10629824
1.83 0.85000002 -0.087359138
1.83 0.82999998 -0.096828684
1.83 0.81 -0.1078765
1.83 0.79000002 -0.10156347
1.83 0.76999998 -0.096828684
1.83 0.75 -0.10945476
1.83 0.73000002 -0.093672171
nan nan nan
nan nan nan
nan nan nan
nan nan nan
1.83 0.63 0.10676666
1.83 0.61000001 0.13359706
1.83 0.58999997 0.13201879
1.83 0.56999999 0.11939274
1.83 0.55000001 0.11939274
1.83 0.52999997 0.13991009
1.83 0.50999999 0.13675357
1.83 0.49000001 0.1020319
1.83 0.47 0.1099232
1.83 0.44999999 0.10518841
1.83 0.43000001 0.11465795
1.83 0.41 0.13201879
1.83 0.38999999 0.11939274
1.83 0.37 0.12097101
1.83 0.34999999 0.12097101
1.83 0.33000001 0.13359706
1.83 0.31 0.12097101
1.83 0.28999999 0.13044055
1.83 0.27000001 0.12412752
1.83 0.25 0.11781447
1.83 0.23 0.12412752
1.83 0.20999999 0.11939274
1.83 0.19 0.11781447
1.83 0.17 0.11465795
1.83 0.15000001 0.11781447
1.83 0.13 0.11781447
1.83 0.11 0.12728404
1.83 0.090000004 0.11623622
1.83 0.07 0.11623622
1.83 0.050000001 0.11623622
1.83 0.029999999 0.11939274
1.83 0.0099999998 0.13044055
1.83 -0.0099999998 0.13044055
1.83 -0.029999999 0.11623622
1.83 -0.050000001 0.11307971
1.83 -0.07 0.11781447
1.83 -0.090000004 0.11623622
1.83 -0.11 0.11781447
1.83 -0.13 0.11623622
1.83 -0.15000001 0.11623622
1.83 -0.17 0.11307971
1.83 -0.19 0.11307971
1.83 -0.20999999 0.11781447
1.83 -0.23 0.079936281
1.83 -0.25 0.095718861
1.83 -0.27000001 0.1099232
1.83 -0.28999999 0.098875374
1.83 -0.31 0.10834493
1.83 -0.33000001 0.11623622
1.83 -0.34999999 0.11307971
1.83 -0.37 0.11623622
1.83 -0.38999999 0.092562348
1.83 -0.41 0.095718861
1.83 -0.43000001 0.11781447
1.83 -0.44999999 0.11623622
1.83 -0.47 0.12570576
1.83 -0.49000001 0.11465795
1.83 -0.50999999 0.10518841
1.83 -0.52999997 0.10676666
1.83 -0.55000001 0.11623622
1.83 -0.56999999 0.12570576
1.83 -0.58999997 0.094140604
1.83 -0.61000001 0.095718861
1.83 -0.63 0.1020319
1.83 -0.64999998 0.10676666
1.83 -0.67000002 0.10834493
1.83 -0.69 0.10361014
1.83 -0.70999998 0.10518841
1.83 -0.73000002 0.10834493
1.83 -0.75 0.10361014
1.83 -0.76999998 0.10361014
1.83 -0.79000002 0.10518841
1.83 -0.81 0.083092794
nan nan nan
nan nan nan
nan nan nan
nan nan nan
nan nan nan
1.83 -0.93000001 -0.12208083
1.83 -0.94999999 -0.1189243
1.83 -0.97000003 -0.11103302
1.83 -0.99000001 -0.12839386
1.8099999 0.99000001 -0.077889584
1.8099999 0.97000003 -0.098406948
1.8099999 0.94999999 -0.098406948
1.8099999 0.93000001 -0.11576779
1.8099999 0.91000003 -0.098406948
1.8099999 0.88999999 -0.098406948
1.8099999 0.87 -0.10156347
1.8099999 0.85000002 -0.098406948
1.8099999 0.82999998 -0.077889584
1.8099999 0.81 -0.079467848
1.8099999 0.79000002 -0.098406948
1.8099999 0.76999998 -0.098406948
1.8099999 0.75 -0.10156347
1.8099999 0.73000002 -0.10629824
nan nan nan
nan nan nan
nan nan nan
nan nan nan
1.8099999 0.63 0.11150144
1.8099999 0.61000001 0.12412752
1.8099999 0.58999997 0.12097101
1.8099999 0.56999999 0.13675357
1.8099999 0.55000001 0.13359706
1.8099999 0.52999997 0.13833185
1.8099999 0.50999999 0.12728404
1.8099999 0.49000001 0.1099232
1.8099999 0.47 0.11623622
1.8099999 0.44999999 0.12412752
1.8099999 0.43000001 0.11465795
1.8099999 0.41 0.1099232
1.8099999 0.38999999 0.13201879
1.8099999 0.37 0.12728404
1.8099999 0.34999999 0.12728404
1.8099999 0.33000001 0.11623622
1.8099999 0.31 0.12728404
1.8099999 0.28999999 0.13201879
1.8099999 0.27000001 0.12570576
1.8099999 0.25 0.11465795
1.8099999 0.23 0.11465795
1.8099999 0.20999999 0.12254925
1.8099999 0.19 0.12254925
1.8099999 0.17 0.12412752
1.8099999 0.15000001 0.11939274
1.8099999 0.13 0.11307971
1.8099999 0.11 0.11307971
1.8099999 0.090000004 0.11307971
1.8099999 0.07 0.11150144
1.8099999 0.050000001 0.1099232
1.8099999 0.029999999 0.12412752
1.8099999 0.0099999998 0.12728404
1.8099999 -0.0099999998 0.12728404
1.8099999 -0.029999999 0.12412752
1.8099999 -0.050000001 0.11307971
1.8099999 -0.07 0.12570576
1.8099999 -0.090000004 0.11150144
1.8099999 -0.11 0.12097101
1.8099999 -0.13 0.12254925
1.8099999 -0.15000001 0.12412752
1.8099999 -0.17 0.11150144
1.8099999 -0.19 0.1099232
1.8099999 -0.20999999 0.11307971
1.8099999 -0.23 0.11623622
1.8099999 -0.25 0.10834493
1.8099999 -0.27000001 0.11307971
1.8099999 -0.28999999 0.10361014
1.8099999 -0.31 0.11781447
1.8099999 -0.33000001 0.11623622
1.8099999 -0.34999999 0.11465795
1.8099999 -0.37 0.1099232
1.8099999 -0.38999999 0.092562348
1.8099999 -0.41 0.094140604
1.8099999 -0.43000001 0.11939274
1.8099999 -0.44999999 0.12412752
1.8099999 -0.47 0.12886228
1.8099999 -0.49000001 0.11150144
1.8099999 -0.50999999 0.10361014
1.8099999 -0.52999997 0.10834493
1.8099999 -0.55000001 0.12254925
1.8099999 -0.56999999 0.12886228
1.8099999 -0.58999997 0.090984091
1.8099999 -0.61000001 0.10834493
1.8099999 -0.63 0.1099232
1.8099999 -0.64999998 0.11307971
1.8099999 -0.67000002 0.1099232
1.8099999 -0.69 0.10676666
1.8099999 -0.70999998 0.11150144
1.8099999 -0.73000002 0.11150144
1.8099999 -0.75 0.1020319
1.8099999 -0.76999998 0.11150144
1.8099999 -0.79000002 0.11307971
nan nan nan
nan nan nan
nan nan nan
nan nan nan
nan nan nan
nan nan nan
1.8099999 -0.93000001 -0.12208083
1.8099999 -0.94999999 -0.11734605
1.8099999 -0.97000003 -0.11734605
1.8099999 -0.99000001 -0.12365909
1.79 0.99000001 -0.085780881
1.79 0.97000003 -0.076311328
1.79 0.94999999 -0.10471998
1.79 0.93000001 -0.10945476
1.79 0.91000003 -0.12523735
1.79 0.88999999 -0.096828684
1.79 0.87 -0.10314173
1.79 0.85000002 -0.10945476
1.79 0.82999998 -0.085780881
1.79 0.81 -0.10314173
1.79 0.79000002 -0.10314173
1.79 0.76999998 -0.10471998
1.79 0.75 -0.092093915
1.79 0.73000002 -0.095250428
1.79 0.70999998 -0.074733071
nan nan nan
nan nan nan
1.79 0.64999998 0.10361014
1.79 0.63 0.1099232
1.79 0.61000001 0.11781447
1.79 0.58999997 0.11623622
1.79 0.56999999 0.12728404
1.79 0.55000001 0.13991009
1.79 0.52999997 0.13833185
1.79 0.50999999 0.12254925
1.79 0.49000001 0.12254925
1.79 0.47 0.11939274
1.79 0.44999999 0.12254925
1.79 0.43000001 0.12097101
1.79 0.41 0.12097101
1.79 0.38999999 0.11939274
1.79 0.37 0.11939274
1.79 0.34999999 0.12254925
1.79 0.33000001 0.12254925
1.79 0.31 0.12886228
1.79 0.28999999 0.13833185
1.79 0.27000001 0.12728404
1.79 0.25 0.11623622
1.79 0.23 0.12097101
1.79 0.20999999 0.12728404
1.79 0.19 0.12097101
1.79 0.17 0.12097101
1.79 0.15000001 0.12097101
1.79 0.13 0.12254925
1.79 0.11 0.12097101
1.79 0.090000004 0.10676666
1.79 0.07 0.11623622
1.79 0.050000001 0.11307971
1.79 0.029999999 0.12097101
1.79 0.0099999998 0.12097101
1.79 -0.0099999998 0.12097101
1.79 -0.029999999 0.11939274
1.79 -0.050000001 0.11465795
1.79 -0.07 0.11465795
1.79 -0.090000004 0.1020319
1.79 -0.11 0.12097101
1.79 -0.13 0.11939274
1.79 -0.15000001 0.10834493
1.79 -0.17 0.10834493
1.79 -0.19 0.11307971
1.79 -0.20999999 0.12097101
1.79 -0.23 0.12097101
1.79 -0.25 0.11781447
1.79 -0.27000001 0.12254925
1.79 -0.28999999 0.11465795
1.79 -0.31 0.12097101
1.79 -0.33000001 0.12412752
1.79 -0.34999999 0.086249307
1.79 -0.37 0.10834493
1.79 -0.38999999 0.1099232
1.79 -0.41 0.10834493
1.79 -0.43000001 0.12254925
1.79 -0.44999999 0.10518841
1.79 -0.47 0.12097101
1.79 -0.49000001 0.11150144
1.79 -0.50999999 0.1099232
1.79 -0.52999997 0.11307971
1.79 -0.55000001 0.1020319
1.79 -0.56999999 0.10045363
1.79 -0.58999997 0.1020319
1.79 -0.61000001 0.10676666
1.79 -0.63 0.11150144
1.79 -0.64999998 0.10834493
1.79 -0.67000002 0.11465795
1.79 -0.69 0.11781447
1.79 -0.70999998 0.11781447
1.79 -0.73000002 0.11623622
1.79 -0.75 0.1020319
1.79 -0.76999998 0.11939274
1.79 -0.79000002 0.11623622
1.79 -0.81 0.08467105
nan nan nan
nan nan nan
nan nan nan
nan nan nan
1.79 -0.91000003 -0.11103302
1.79 -0.93000001 -0.11576779
1.79 -0.94999999 -0.11261128
1.79 -0.97000003 -0.1268156
1.79 -0.99000001 -0.12050257
1.77 0.99000001 -0.10156347
1.77 0.97000003 -0.079467848
1.77 0.94999999 -0.081046104
1.77 0.93000001 -0.088937394
1.77 0.91000003 -0.11418954
1.77 0.88999999 -0.11418954
1.77 0.87 -0.096828684
1.77 0.85000002 -0.095250428
1.77 0.82999998 -0.096828684
1.77 0.81 -0.087359138
1.77 0.79000002 -0.10156347
1.77 0.76999998 -0.096828684
1.77 0.75 -0.095250428
1.77 0.73000002 -0.093672171
1.77 0.70999998 -0.081046104
nan nan nan
nan nan nan
nan nan nan
1.77 0.63 0.12097101
1.77 0.61000001 0.13201879
1.77 0.58999997 0.12570576
1.77 0.56999999 0.13044055
1.77 0.55000001 0.13833185
1.77 0.52999997 0.12728404
1.77 0.50999999 0.11465795
1.77 0.49000001 0.11623622
1.77 0.47 0.12254925
1.77 0.44999999 0.12570576
1.77 0.43000001 0.11623622
1.77 0.41 0.12570576
1.77 0.38999999 0.12728404
1.77 0.37 0.12097101
1.77 0.34999999 0.12570576
1.77 0.33000001 0.12886228
1.77 0.31 0.13201879
1.77 0.28999999 0.14148836
1.77 0.27000001 0.12728404
1.77 0.25 0.12254925
1.77 0.23 0.13201879
1.77 0.20999999 0.11939274
1.77 0.19 0.11939274
1.77 0.17 0.11307971
1.77 0.15000001 0.12254925
1.77 0.13 0.12728404
1.77 0.11 0.11939274
1.77 0.090000004 0.11307971
1.77 0.07 0.11150144
1.77 0.050000001 0.11465795
1.77 0.029999999 0.11307971
1.77 0.0099999998 0.11307971
1.77 -0.0099999998 0.12254925
1.77 -0.029999999 0.11781447
1.77 -0.050000001 0.11307971
1.77 -0.07 0.11307971
1.77 -0.090000004 0.11307971
1.77 -0.11 0.11623622
1.77 -0.13 0.11939274
1.77 -0.15000001 0.11781447
1.77 -0.17 0.11150144
1.77 -0.19 0.11307971
1.77 -0.20999999 0.11781447
1.77 -0.23 0.1099232
1.77 -0.25 0.11623622
1.77 -0.27000001 0.12254925
1.77 -0.28999999 0.10676666
1.77 -0.31 0.1099232
1.77 -0.33000001 0.098875374
1.77 -0.34999999 0.097297117
1.77 -0.37 0.11623622
1.77 -0.38999999 0.11307971
1.77 -0.41 0.11465795
1.77 -0.43000001 0.11465795
1.77 -0.44999999 0.11623622
1.77 -0.47 0.11939274
1.77 -0.49000001 0.1099232
1.77 -0.50999999 0.10834493
1.77 -0.52999997 0.11150144
1.77 -0.55000001 0.10676666
1.77 -0.56999999 0.10676666
1.77 -0.58999997 0.1099232
1.77 -0.61000001 0.11781447
1.77 -0.63 0.11307971
1.77 -0.64999998 0.1099232
1.77 -0.67000002 0.095718861
1.77 -0.69 0.11623622
1.77 -0.70999998 0.11150144
1.77 -0.73000002 0.1099232
1.77 -0.75 0.11150144
1.77 -0.76999998 0.11623622
1.77 -0.79000002 0.10834493
1.77 -0.81 0.092562348
nan nan nan
nan nan nan
nan nan nan
1.77 -0.88999999 -0.084202617
1.77 -0.91000003 -0.11576779
1.77 -0.93000001 -0.11576779
1.77 -0.94999999 -0.11418954
1.77 -0.97000003 -0.12050257
1.77 -0.99000001 -0.12050257
1.75 0.99000001 -0.10945476
1.75 0.97000003 -0.10314173
1.75 0.94999999 -0.10314173
1.75 0.93000001 -0.10314173
1.75 0.91000003 -0.099985212
1.75 0.88999999 -0.10629824
1.75 0.87 -0.098406948
1.75 0.85000002 -0.098406948
1.75 0.82999998 -0.10156347
1.75 0.81 -0.10629824
1.75 0.79000002 -0.096828684
1.75 0.76999998 -0.090515658
1.75 0.75 -0.10314173
1.75 0.73000002 -0.098406948
1.75 0.70999998 -0.098406948
1.75 0.69 -0.063685261
nan nan nan
nan nan nan
1.75 0.63 0.11623622
1.75 0.61000001 0.11150144
1.75 0.58999997 0.13044055
1.75 0.56999999 0.13517533
1.75 0.55000001 0.13833185
1.75 0.52999997 0.13517533
1.75 0.50999999 0.13517533
1.75 0.49000001 0.12412752
1.75 0.47 0.12728404
1.75 0.44999999 0.12886228
1.75 0.43000001 0.13201879
1.75 0.41 0.12886228
1.75 0.38999999 0.13359706
1.75 0.37 0.12886228
1.75 0.34999999 0.12254925
1.75 0.33000001 0.13833185
1.75 0.31 0.13675357
1.75 0.28999999 0.12728404
1.75 0.27000001 0.13359706
1.75 0.25 0.12886228
1.75 0.23 0.13517533
1.75 0.20999999 0.12254925
1.75 0.19 0.12097101
1.75 0.17 0.12254925
1.75 0.15000001 0.12412752
1.75 0.13 0.11939274
1.75 0.11 0.12254925
1.75 0.090000004 0.13044055
1.75 0.07 0.11781447
1.75 0.050000001 0.12412752
1.75 0.029999999 0.12254925
1.75 0.0099999998 0.10834493
1.75 -0.0099999998 0.10834493
1.75 -0.029999999 0.11781447
1.75 -0.050000001 0.11465795
1.75 -0.07 0.11939274
1.75 -0.090000004 0.12886228
1.75 -0.11 0.12570576
1.75 -0.13 0.12570576
1.75 -0.15000001 0.10676666
1.75 -0.17 0.10676666
1.75 -0.19 0.12097101
1.75 -0.20999999 0.12254925
1.75 -0.23 0.1099232
1.75 -0.25 0.1099232
1.75 -0.27000001 0.11623622
1.75 -0.28999999 0.11150144
1.75 -0.31 0.1099232
1.75 -0.33000001 0.11150144
1.75 -0.34999999 0.10518841
1.75 -0.37 0.12097101
1.75 -0.38999999 0.11939274
1.75 -0.41 0.11781447
1.75 -0.43000001 0.11781447
1.75 -0.44999999 0.12254925
1.75 -0.47 0.1020319
1.75 -0.49000001 0.10518841
1.75 -0.50999999 0.10834493
1.75 -0.52999997 0.10834493
1.75 -0.55000001 0.1020319
1.75 -0.56999999 0.10676666
1.75 -0.58999997 0.1099232
1.75 -0.61000001 0.12254925
1.75 -0.63 0.11781447
1.75 -0.64999998 0.10676666
1.75 -0.67000002 0.13044055
1.75 -0.69 0.12254925
1.75 -0.70999998 0.11465795
1.75 -0.73000002 0.11307971
1.75 -0.75 0.1099232
1.75 -0.76999998 0.11150144
1.75 -0.79000002 0.11150144
1.75 -0.81 0.10045363
nan nan nan
nan nan nan
nan nan nan
1.75 -0.88999999 -0.10314173
1.75 -0.91000003 -0.11734605
1.75 -0.93000001 -0.10945476
1.75 -0.94999999 -0.11261128
1.75 -0.97000003 -0.10945476
1.75 -0.99000001 -0.11103302
1.73 0.99000001 -0.10945476
1.73 0.97000003 -0.098406948
1.73 0.94999999 -0.10156347
1.73 0.93000001 -0.093672171
1.73 0.91000003 -0.11734605
1.73 0.88999999 -0.11734605
1.73 0.87 -0.098406948
1.73 0.85000002 -0.11103302
1.73 0.82999998 -0.099985212
1.73 0.81 -0.095250428
1.73 0.79000002 -0.090515658
1.73 0.76999998 -0.096828684
1.73 0.75 -0.10471998
1.73 0.73000002 -0.095250428
1.73 0.70999998 -0.092093915
1.73 0.69 -0.035276607
nan nan nan
1.73 0.64999998 0.1099232
1.73 0.63 0.11465795
1.73 0.61000001 0.12097101
1.73 0.58999997 0.13359706
1.73 0.56999999 0.13517533
1.73 0.55000001 0.14148836
1.73 0.52999997 0.13833185
1.73 0.50999999 0.12886228
1.73 0.49000001 0.13044055
1.73 0.47 0.13517533
1.73 0.44999999 0.13675357
1.73 0.43000001 0.13517533
1.73 0.41 0.13201879
1.73 0.38999999 0.11939274
1.73 0.37 0.13044055
1.73 0.34999999 0.11623622
1.73 0.33000001 0.13201879
1.73 0.31 0.13201879
1.73 0.28999999 0.13359706
1.73 0.27000001 0.11465795
1.73 0.25 0.13201879
1.73 0.23 0.11623622
1.73 0.20999999 0.11939274
1.73 0.19 0.11307971
1.73 0.17 0.11307971
1.73 0.15000001 0.12886228
1.73 0.13 0.12097101
1.73 0.11 0.12412752
1.73 0.090000004 0.11939274
1.73 0.07 0.12728404
1.73 0.050000001 0.12886228
1.73 0.029999999 0.12886228
1.73 0.0099999998 0.11465795
1.73 -0.0099999998 0.11623622
