# .PCD v0.7 - Point Cloud Data file format
VERSION 0.7
FIELDS x y z
SIZE 4 4 4
TYPE F F F
COUNT 1 1 1
WIDTH 1425
HEIGHT 1
VIEWPOINT 0 0 0 1 0 0 0
POINTS 1425
DATA ascii
1.5118507 0.014671158 0.049779214
1.5276283 0.026227549 0.056685351
1.5121021 0.02502669 0.048145007
1.5547469 0.04946319 0.07187479
1.5266087 0.044398319 0.05393045
1.5179361 0.043369059 0.05221137
1.5550711 0.059385754 0.073230602
1.5447919 0.060931947 0.065066844
1.5275612 0.061356854 0.057378534
1.5159949 0.068209164 0.051330805
1.5420417 0.074009202 0.066165067
1.5264299 0.078749485 0.058294777
1.514926 0.075832978 0.050968882
1.5540957 0.10082372 0.078765959
1.5409298 0.099020891 0.07046748
1.5308208 0.098868698 0.063858666
1.5377867 0.11385024 0.069155082
1.5275478 0.11010271 0.066419303
1.5388348 0.13754371 0.064860284
1.5262558 0.13747036 0.058460519
1.536723 0.1524092 0.070507258
1.5275248 0.15033029 0.061609954
1.5352328 0.16861089 0.067174651
1.5293332 0.1637598 0.065022551
1.5567405 0.19343136 0.074681744
1.5440104 0.19026516 0.067480341
1.5334988 0.19492577 0.061763577
1.558947 0.20639463 0.074818037
1.5473442 0.20486991 0.066487603
1.5317529 0.20333561 0.060230035
1.567402 0.22406635 0.087829858
1.5536187 0.22350106 0.081063554
1.5380392 0.22611453 0.072041325
1.5662752 0.23532936 0.086290501
1.5548818 0.243264 0.082792945
1.5364317 0.23764379 0.073933139
1.5557421 0.26047662 0.080503426
1.5440358 0.2660881 0.076071702
1.5715797 0.2776525 0.088601515
1.5591911 0.27810264 0.079733536
1.5401487 0.28057399 0.068177946
1.5317134 0.28082615 0.06316033
1.5629861 0.29491842 0.08852382
1.5525779 0.29625511 0.083096504
1.5425 0.29574752 0.072684027
1.5660207 0.31459668 0.093512289
1.5538642 0.31355557 0.082358859
1.5444747 0.31319857 0.071635127
1.5709411 0.33121037 0.097835861
1.5453213 0.32392937 0.083839133
1.5796317 0.35179201 0.10281821
1.5662609 0.3518984 0.093818739
1.5554824 0.35324889 0.089227431
1.5933133 0.36376917 0.1074362
1.58294 0.3647972 0.1031911
1.5671606 0.36310855 0.092361294
1.5540829 0.37081808 0.082913347
1.5466734 0.37501186 0.075645328
1.5864872 0.39268714 0.10061007
1.5530325 0.38772595 0.080369323
1.5466734 0.37884468 0.075645328
1.5875109 0.39644894 0.10222304
1.5624188 0.40437931 0.087590083
1.5591453 0.3984639 0.085288815
1.5657724 0.41880605 0.085080773
1.5549129 0.42558813 0.079553872
1.5420666 0.42344153 0.079170227
1.5588291 0.4473871 0.090276033
1.5590601 0.43645275 0.080057569
1.6003349 0.46296781 0.13036752
1.5893961 0.45522243 0.12247801
1.5808877 0.46232882 0.11092027
1.564441 0.45257178 0.088463172
1.5566046 0.45432892 0.091940507
1.5816168 0.46894792 0.12048814
1.5794536 0.4759762 0.10682532
1.569903 0.47842658 0.092997156
1.5787945 0.493889 0.1074771
1.5678405 0.49492222 0.09386114
1.5586406 0.49997109 0.085668094
1.5981549 0.51585162 0.11333851
1.5803353 0.51213658 0.10490134
1.5661879 0.51243246 0.096068919
1.5808699 0.52572733 0.10175479
1.5701138 0.53095305 0.08977548
1.5573125 0.53105605 0.09141089
1.5695442 0.54424876 0.087025762
1.5574135 0.54256791 0.091335259
1.5961812 0.57396233 0.11006832
1.5839731 0.56674528 0.10096823
1.5678176 0.56649292 0.094885975
1.5937319 0.58431715 0.11602172
1.5825981 0.58004451 0.10343856
1.5743624 0.57563055 0.097677544
1.5902859 0.59558082 0.11584008
1.5869361 0.59825379 0.11201911
1.5065141 -0.78037035 0.0011326919
1.4921905 -0.77977854 -0.008005321
1.4819504 -0.7752502 -0.015240343
1.5066942 -0.76842862 0.0001343164
1.492864 -0.76599538 -0.008617593
1.4813114 -0.76598674 -0.017249364
1.5053746 -0.74897295 -0.0027761802
1.4921619 -0.74816209 -0.008917707
1.4817613 -0.75577742 -0.015075877
1.4920517 -0.73239297 -0.011315966
1.491344 -0.71090931 -0.01311975
1.4785472 -0.71147156 -0.012279755
1.4935991 -0.69441879 -0.0078048306
1.4885902 -0.67935586 -0.013947832
1.4777167 -0.67468846 -0.014813515
1.504086 -0.65402609 -0.0035935156
1.4901285 -0.65693861 -0.0074491459
1.4810205 -0.65946835 -0.015286203
1.4926368 -0.64206958 -0.011532072
1.5079637 -0.61744547 -0.0028032591
1.4950771 -0.62168431 -0.0077701332
1.5094962 -0.60894579 -0.0015534802
1.4966085 -0.60494298 -0.0097744288
1.507749 -0.58178079 -0.0028766887
1.4977976 -0.58490247 -0.012014491
1.5079838 -0.5686847 0.0011357791
1.4965498 -0.57370704 -0.0073582465
1.504078 -0.55258125 0.0010378098
1.4940001 -0.54622227 -0.00095139706
1.4898878 -0.5307709 -0.0051443572
1.4894613 -0.51405102 -0.0089376951
1.5049152 -0.49486229 -0.0042961389
1.4904962 -0.49515095 -0.0070312219
1.4775072 -0.48894191 -0.011374982
1.487975 -0.48066542 -0.0063873716
1.4770346 -0.482981 -0.010963849
1.4871656 -0.45965204 -0.0086699072
1.480816 -0.4533866 -0.014253452
1.5016891 -0.43820402 0.00046814786
1.4904596 -0.44199321 -0.0076741446
1.4789274 -0.44196698 -0.014071164
1.5038745 -0.42562979 -0.0025673129
1.4926404 -0.42623267 -0.0055838078
1.501034 -0.40495971 0.0011665145
1.4972886 -0.40971869 -0.0029073609
1.5001128 -0.38936228 0.0061038965
1.5070643 -0.37180257 0.014116242
1.5128527 -0.34619346 0.0092979232
1.5101027 -0.33842728 0.0065480252
1.4999281 -0.31758693 0.0075103128
1.5000002 -0.2908476 0.0049307714
1.5063162 -0.28327975 0.0097147617
1.5262752 -0.25919905 0.033798251
1.537425 -0.24270691 0.04323937
1.5261815 -0.24579078 0.038264804
1.556896 -0.21869296 0.045916922
1.54159 -0.22410969 0.040374182
1.529 -0.2239076 0.036759019
1.5523038 -0.20965356 0.048690118
1.5402577 -0.20772402 0.044260547
1.5256808 -0.20729734 0.034834284
1.537578 -0.19262989 0.044747666
1.5277209 -0.19607961 0.040311668
1.542199 -0.17131047 0.040765576
1.5290571 -0.16848068 0.040882006
1.5551525 -0.15528253 0.051362202
1.5399467 -0.16225404 0.04858961
1.5585066 -0.13465711 0.047115054
1.5402796 -0.13067986 0.046094127
1.5289589 -0.12794898 0.040960513
1.5697087 -0.11541203 0.060453054
1.5577284 -0.11717428 0.052618112
1.5401788 -0.11756906 0.044873506
1.5287298 -0.12107646 0.039175663
1.5672868 -0.10423907 0.061492942
1.5544858 -0.10030454 0.053697295
1.5418793 -0.10420143 0.044821054
1.5581559 -0.081368089 0.051178202
1.5452038 -0.079657227 0.046740193
1.556268 -0.064646699 0.053756312
1.5436519 -0.058640894 0.04893598
1.5620415 -0.043842044 0.065499015
1.5564069 -0.049184337 0.056221139
1.5451961 -0.047085512 0.047722466
1.5584792 -0.03038628 0.069369599
1.558286 -0.029723508 0.054613296
1.5420135 -0.029180992 0.052176505
1.5918874 -0.010318875 0.084797248
1.5844814 -0.0099257957 0.078781962
1.5668607 -0.0067943032 0.070377015
1.5817798 0.00095627707 0.07695245
1.5656773 0.0046457127 0.068798564
1.5525887 0.0092116054 0.061462492
1.5521518 0.024937078 0.057601489
1.5681186 0.047303014 0.064092703
1.5512965 0.04489487 0.058728959
1.5416135 0.043774173 0.053791523
1.5830133 0.067087233 0.075074695
1.5723286 0.063971832 0.068155371
1.5831285 0.074627981 0.074506246
1.5669889 0.080003895 0.067249186
1.5527329 0.083882049 0.059485391
1.5699555 0.098135769 0.073560283
1.5651441 0.11417729 0.067555457
1.5560172 0.12010722 0.06172578
1.5635388 0.13674664 0.064125769
1.5550263 0.13365947 0.05995699
1.5632368 0.15255025 0.069746517
1.5529549 0.14598066 0.066017225
1.5906647 0.17812511 0.0856959
1.5804435 0.17393862 0.079781443
1.564515 0.16953295 0.071666032
1.5514585 0.17023741 0.063653022
1.5914799 0.18211338 0.085096784
1.582672 0.18669501 0.074495837
1.5726429 0.18774578 0.065148652
1.553243 0.18213885 0.064184248
1.5941688 0.20447724 0.086596563
1.5806766 0.20487459 0.081134707
1.5705159 0.20439945 0.076742642
1.5479512 0.20676944 0.060601126
1.5422266 0.2058 0.05493518
1.5863483 0.23038529 0.090453848
1.5801544 0.22253272 0.085497685
1.550889 0.2169753 0.063739009
1.6083305 0.24872591 0.096644215
1.5968398 0.24307357 0.089926496
1.5803915 0.24258155 0.082629554
1.5672499 0.24654254 0.077601701
1.6083305 0.25456944 0.096644215
1.6029141 0.25410128 0.092005491
1.5787084 0.25892144 0.081330515
1.5683526 0.25441897 0.07717222
1.589262 0.27895823 0.090303622
1.5809503 0.27031809 0.085704096
1.5578862 0.27935097 0.070280656
1.552861 0.28041756 0.064155534
1.5861815 0.28989512 0.088990822
1.5793312 0.29527205 0.083986796
1.5927547 0.31815207 0.086548477
1.5798836 0.30878773 0.086493582
1.5903945 0.33283225 0.090658136
1.5963964 0.35235569 0.095788114
1.6032306 0.37015998 0.10450771
1.587124 0.37392843 0.097782254
1.578099 0.37267017 0.086110637
1.601342 0.38433826 0.10776995
1.5881991 0.38515988 0.096788548
1.5789078 0.38618919 0.082572997
1.5670825 0.38685963 0.075837918
1.6117469 0.41214097 0.10129811
1.5956806 0.4067345 0.09007097
1.5832115 0.40392551 0.080616787
1.6090614 0.41683176 0.099673048
1.593254 0.42203876 0.093319453
1.5834928 0.42270654 0.081116773
1.6193657 0.44740495 0.1076794
1.6033728 0.44347712 0.10648867
1.5911046 0.44078177 0.094889492
1.5741676 0.4369815 0.084319986
1.5664116 0.44100946 0.079827428
1.6115084 0.46094531 0.12138877
1.6029203 0.45367223 0.11150448
1.5953891 0.4593502 0.091258027
1.5808842 0.46055749 0.08242061
1.6163565 0.47736526 0.12212294
1.604203 0.48124635 0.1100765
1.5913554 0.47057989 0.0890029
1.5819023 0.47255322 0.07956896
1.6197343 0.49153918 0.11540193
1.6048725 0.49171034 0.1082473
1.6111339 0.51191574 0.10786217
1.6166713 0.52630144 0.10958115
1.6117592 0.52521038 0.10679042
1.5989304 0.53556317 0.093961366
1.5795172 0.5358066 0.091518827
1.620604 0.55160904 0.11083695
1.611506 0.54418421 0.10264825
1.5986702 0.54809898 0.088076897
1.5811033 0.54450154 0.085114531
1.621761 0.56316274 0.11069363
1.5990126 0.56638098 0.1080533
1.5946444 0.56048632 0.097630382
1.6239549 0.58788639 0.12782487
1.6212131 0.59175801 0.12508312
1.5940676 0.58192313 0.10689419
1.590126 0.58663344 0.10167313
1.6239549 0.59562963 0.12782487
1.6195452 0.59940529 0.11846551
1.6037629 0.603181 0.10841051
1.5912688 0.60175163 0.10185625
1.5980994 0.61681402 0.094544627
1.5309891 -0.79535681 -0.005799334
1.5278176 -0.79513609 -0.0082636476
1.5309074 -0.78263617 -0.0028952649
1.5159383 -0.78860915 -0.0034082083
1.5302172 -0.75952476 -0.0051568747
1.5248307 -0.76814157 -0.0094831968
1.5258652 -0.74660164 0.001008971
1.5157678 -0.7461437 -0.0022470525
1.5283991 -0.73226362 -0.0010972343
1.5160542 -0.72948945 -0.0073844302
1.5036224 -0.72676623 -0.0148137
1.5192451 -0.71409863 -0.014850599
1.5049655 -0.71766418 -0.018670646
1.5152532 -0.69702643 -0.013050019
1.502026 -0.68883377 -0.012046807
1.4992057 -0.67571765 -0.013619912
1.527516 -0.65208346 -0.0029083514
1.5181423 -0.65628153 -0.0072969445
1.5290213 -0.6403693 -0.00034259169
1.5170416 -0.63964558 -0.0068775769
1.502225 -0.63628864 -0.010300574
1.5281575 -0.62231392 -0.00089685956
1.5178609 -0.62551093 -0.0062878532
1.5016707 -0.62641639 -0.010722607
1.5294813 -0.60323155 0.00054670882
1.5139093 -0.59970665 -0.0025499591
1.5018234 -0.5984264 -0.010852819
1.5290401 -0.58875841 0.00091351988
1.5145735 -0.58934158 -0.0042900066
1.5017854 -0.59139526 -0.010820188
1.525008 -0.5686276 -0.00082050078
1.5222725 -0.54835415 -0.0087229377
1.5309247 -0.53565645 -0.0057457131
1.5210923 -0.53159243 -0.010286677
1.5065854 -0.52545524 -0.01252539
1.5167958 -0.51582241 -0.012021488
1.5060756 -0.51436955 -0.012946802
1.5137924 -0.49617913 -0.0057681878
1.5130389 -0.4780063 -0.012317955
1.5032151 -0.47868744 -0.011016674
1.5167192 -0.45934647 -0.012688981
1.5023577 -0.4627825 -0.012333771
1.5250078 -0.43544039 -0.00082042703
1.5205622 -0.44145176 -0.0060174312
1.5303284 -0.42265278 -0.0024138577
1.5199478 -0.42383215 -0.0067760567
1.5325251 -0.41099438 -0.0036742366
1.5244867 -0.40598923 -0.0077446033
1.5296384 -0.3818661 -0.0046750777
1.5211352 -0.39047003 -0.0052231923
1.5293287 -0.36729503 0.00067209447
1.5266545 -0.35110551 0.0016217908
1.5269372 -0.34189466 -0.0024265542
1.5214633 -0.33535308 -0.0029506874
1.5184846 -0.31781632 -0.0065658302
1.5155927 -0.2977103 -0.0051444834
1.5342022 -0.27390468 0.016859174
1.5318943 -0.2830703 0.0023537902
1.5499289 -0.25863615 0.029168392
1.5450456 -0.26657832 0.023106478
1.5714128 -0.24036525 0.037064083
1.5579398 -0.24433076 0.03688452
1.5794712 -0.22319195 0.050549261
1.5681968 -0.22595157 0.044180702
1.5573148 -0.22938627 0.035729147
1.5787234 -0.20972881 0.050302379
1.5635065 -0.20676693 0.049865298
1.5826265 -0.1912438 0.048136082
1.5638642 -0.18957005 0.047600463
1.5545759 -0.18854773 0.038706046
1.5767328 -0.16909255 0.0501974
1.5629163 -0.17318101 0.047660671
1.5543457 -0.1769674 0.038558058
1.5812372 -0.15299138 0.050355304
1.5727751 -0.15208322 0.044030312
1.5784276 -0.13619798 0.05484667
1.5657575 -0.13598511 0.051293418
1.5765984 -0.11860207 0.061288271
1.5917135 -0.099475093 0.06178407
1.5817664 -0.099063829 0.055655029
1.5699759 -0.094471529 0.04803668
1.6068263 -0.081681773 0.073380731
1.5939639 -0.08252158 0.066033214
1.5793155 -0.083116889 0.057426821
1.5681641 -0.088410303 0.051881667
1.6038638 -0.068320885 0.07237874
1.5921327 -0.063658118 0.0674024
1.5783267 -0.063118108 0.058756512
1.5867978 -0.051451884 0.064505026
1.5805786 -0.047518961 0.059479356
1.5587246 -0.042973951 0.046331044
1.6049982 -0.020249041 0.070331156
1.5928583 -0.023751499 0.066580273
1.5818939 -0.02650377 0.060308419
1.5583299 -0.034692056 0.046024904
1.6032507 -0.0092063509 0.079331532
1.5872502 -0.014935036 0.06578242
1.5818876 -0.014280647 0.060920522
1.607643 0.005828829 0.077604346
1.5945396 0.0096323704 0.069752425
1.5796003 0.01346536 0.061196379
1.5896224 0.025554666 0.068147175
1.5759265 0.026713772 0.060580894
1.5664444 0.031361785 0.05369756
1.587353 0.044412579 0.06408786
1.579605 0.042405549 0.059336826
1.5673612 0.039696943 0.053318009
1.6074333 0.067510918 0.074180268
1.5916023 0.058630798 0.066967472
1.6190242 0.084534891 0.085771337
1.6093178 0.079845369 0.079224646
1.5898651 0.081658281 0.073745675
1.5797968 0.085216664 0.064928658
1.6189079 0.095022872 0.08861199
1.6051363 0.093652576 0.081347689
1.5907322 0.095487088 0.0704863
1.5800991 0.091087036 0.064700417
1.5869553 0.1175458 0.070201561
1.576901 0.12031333 0.062268458
1.6020764 0.14037743 0.077308692
1.5899073 0.13414474 0.071857385
1.5801557 0.1337104 0.060240909
1.6036128 0.15314399 0.079680905
1.590768 0.15181111 0.07121893
1.5806209 0.14520288 0.062688552
1.6038373 0.17172725 0.078766793
1.5948472 0.16676031 0.072476014
1.6045245 0.18817106 0.081062131
1.5905482 0.19167072 0.077801108
1.6306615 0.21334086 0.099706747
1.6215951 0.20888954 0.091524035
1.605722 0.20896763 0.086036675
1.6470475 0.22958449 0.11323904
1.6307355 0.2256671 0.10547826
1.6199002 0.22245315 0.09288279
1.6033837 0.2236934 0.084037058
1.5923878 0.2196018 0.079640992
1.6471581 0.23708715 0.11417054
1.6337185 0.23601794 0.10796104
1.6145716 0.24065542 0.092160888
1.6033764 0.23518185 0.090717874
1.6180775 0.25766537 0.095195688
1.6071284 0.26126036 0.072991759
1.5948286 0.26486698 0.077839084
1.6085999 0.27817771 0.082948372
1.6142989 0.30227661 0.089177698
1.6061792 0.29625222 0.08279869
1.5998117 0.30299258 0.074160226
1.6281661 0.31924766 0.10304485
1.6196736 0.31541476 0.093262851
1.6065872 0.31266126 0.08189524
1.5995066 0.30880401 0.074385412
1.6382852 0.33860871 0.11481395
1.6306707 0.33341944 0.10581954
1.6225597 0.33407712 0.092253298
1.6120176 0.33341628 0.081789508
1.6410239 0.34754166 0.11546096
1.6352979 0.35084948 0.10354755
1.6216762 0.35014269 0.091605507
1.6092052 0.34711099 0.084579207
1.6346387 0.36681861 0.099539384
1.6246992 0.36595449 0.094834514
1.6297976 0.38468066 0.10235295
1.6203307 0.39190814 0.10228046
1.6302168 0.408317 0.1012065
1.6168675 0.40434128 0.10040823
1.6305171 0.41651365 0.10138895
1.6201111 0.42497969 0.095068678
1.6292905 0.44382244 0.10593709
1.6182806 0.43671459 0.098533474
1.6427904 0.45506805 0.11012667
1.631385 0.45553774 0.10912736
1.6390405 0.48088679 0.11929327
1.6320714 0.4713085 0.11755669
1.6411093 0.49288315 0.11598813
1.6341714 0.49763748 0.11140729
1.6254019 0.51084679 0.10499477
1.6253219 0.53083885 0.11054205
1.643082 0.54672229 0.11345306
1.6313405 0.54319149 0.11806329
1.6115192 0.55184186 0.094352946
1.6042202 0.54798841 0.091296591
1.6257249 0.57031858 0.11026751
1.6139883 0.55961269 0.092579298
1.6442287 0.59092516 0.11851816
1.626334 0.58680969 0.10983925
1.6434648 0.60069644 0.124236
1.6240158 0.59969515 0.11081885
1.6503205 0.61490923 0.13067934
1.6435688 0.61371714 0.12481146
1.5535685 -0.7974807 0.0036398259
1.5426913 -0.79885137 -0.0052924808
1.5525478 -0.79017854 0.0033851033
1.5412766 -0.78417653 -0.004513741
1.5431812 -0.76699132 -0.0092695775
1.5472741 -0.74644804 -0.0080402708
1.5428175 -0.72731692 -0.0057388116
1.5436442 -0.71322066 -0.010865516
1.5299976 -0.71142447 -0.012415093
1.5407668 -0.69337791 -0.019090626
1.5318105 -0.69354635 -0.02219782
1.5171306 -0.68661726 -0.024960984
1.5567871 -0.67303741 -0.0044463594
1.5465132 -0.67527437 -0.013802438
1.5311755 -0.67851174 -0.022294082
1.5173212 -0.68276912 -0.0251239
1.5560703 -0.65911686 -0.0043468303
1.5472921 -0.65976775 -0.0096486425
1.5393709 -0.66690749 -0.017923433
1.5535313 -0.63919097 -0.0039752782
1.5460289 -0.63880348 -0.0046265251
1.555797 -0.62234277 -0.0058282674
1.5474361 -0.62249076 -0.0066320528
1.5530952 -0.60202914 -0.0023429252
1.542492 -0.60827214 -0.0017208753
1.5522302 -0.58665001 -0.00099806371
1.543137 -0.58489108 -0.0041163736
1.5524421 -0.57330734 -0.0030844498
1.5398029 -0.56752872 -0.0045983922
1.5446986 -0.55080903 -0.013774263
1.5423914 -0.52932405 -0.0097173415
1.5556186 -0.5090524 -0.0056824195
1.547043 -0.51473266 -0.012863774
1.5330942 -0.51586026 -0.014725087
1.5560076 -0.49329895 -0.0060005095
1.5474005 -0.49671751 -0.01173212
1.5374421 -0.49426603 -0.017781094
1.5557483 -0.48526275 -0.0057884497
1.5477273 -0.47786289 -0.012002479
1.53274 -0.47851875 -0.017512264
1.5428014 -0.46029967 -0.012415799
1.5327913 -0.46210119 -0.014132097
1.5393374 -0.44468465 -0.0081281569
1.5322464 -0.45043033 -0.011966528
1.5477743 -0.41537541 0.00073303824
1.5420355 -0.42520839 -0.0047405311
1.5522301 -0.40531901 -0.0020588266
1.538407 -0.40423852 -0.0024725993
1.5534631 -0.38730687 -0.0039195181
1.5432949 -0.38894325 -0.0074788169
1.5289729 -0.39425868 -0.0092295595
1.5536089 -0.37544411 -0.0040387507
1.5483681 -0.3700633 -0.0071190656
1.5444432 -0.35185602 -0.0067228153
1.5438757 -0.33248469 -0.013948802
1.5327277 -0.33019036 -0.012369038
1.5435483 -0.31789324 -0.017399142
1.5263772 -0.30966276 -0.012178767
1.5402478 -0.29583371 -0.011460233
1.5307548 -0.30046183 -0.013281181
1.5600185 -0.27363437 0.0085579474
1.5418897 -0.28692976 -0.0046212357
1.5807084 -0.25428516 0.02482833
1.5713742 -0.26428807 0.014610261
1.5939362 -0.23875663 0.0345206
1.5874517 -0.24654819 0.029568182
1.6068927 -0.22115131 0.044472102
1.595353 -0.22772487 0.042743433
1.6069934 -0.20328188 0.044396006
1.5968752 -0.20773318 0.04318691
1.599576 -0.19313025 0.053064961
1.5917082 -0.18924811 0.047913115
1.6164898 -0.16897838 0.061847225
1.6075768 -0.17049509 0.055025909
1.5924276 -0.17225872 0.048038114
1.615778 -0.16295688 0.062372793
1.6025214 -0.15674055 0.058282964
1.5942371 -0.15583026 0.052189916
1.5978425 -0.13561349 0.052286178
1.6027308 -0.11913051 0.054983024
1.6243317 -0.09151119 0.075522631
1.6166704 -0.09147051 0.069010228
1.6090311 -0.10090859 0.055979576
1.630761 -0.081055306 0.074739359
1.6212987 -0.080453128 0.071924232
1.6333139 -0.064867139 0.072098464
1.6239098 -0.062840484 0.065223329
1.6170336 -0.056184307 0.056557424
1.6335267 -0.052248456 0.0712827
1.623929 -0.048265647 0.062135149
1.6106846 -0.045449834 0.053633749
1.5951076 -0.043955337 0.053369533
1.6299374 -0.023867451 0.075692505
1.6210612 -0.027607512 0.065181136
1.6090584 -0.033869401 0.054663323
1.5961149 -0.032150533 0.052609041
1.6284758 -0.015090157 0.078959592
1.6198797 -0.011937432 0.075136319
1.6313281 0.012415893 0.07943812
1.6193242 0.01025912 0.07493452
1.6323324 0.020248301 0.073358893
1.6239899 0.02522401 0.063646607
1.605141 0.030940121 0.063756548
1.6314633 0.047421187 0.075190581
1.6230251 0.04305914 0.064351946
1.6103872 0.044190075 0.056982156
1.6319629 0.061071087 0.079915635
1.6164097 0.060801242 0.072528087
1.6081169 0.056016356 0.061546806
1.6323055 0.080306008 0.081021585
1.6368716 0.09239012 0.085764445
1.6179785 0.10174645 0.080129556
1.6276107 0.12222609 0.073144898
1.6213975 0.12089161 0.0671672
1.6099285 0.11993971 0.06182649
1.6471059 0.13896126 0.086730696
1.6334988 0.13448411 0.079833135
1.6184957 0.13328025 0.071882971
1.6570803 0.15817828 0.097841509
1.6485929 0.1527763 0.087790579
1.6344999 0.1519272 0.080254957
1.6203948 0.14938886 0.075626314
1.6571538 0.1664791 0.099113114
1.6474372 0.1672854 0.088973671
1.631665 0.16942382 0.082290508
1.6187797 0.16790967 0.076045476
1.6432939 0.1818548 0.085999623
1.6339183 0.18494795 0.081883207
1.6206427 0.18276797 0.078197621
1.6427532 0.20602079 0.091705032
1.6318562 0.20095167 0.083754361
1.6179785 0.20014933 0.080129556
1.6578441 0.2278292 0.11858094
1.6511704 0.22270994 0.11187206
1.6413627 0.22061507 0.10098852
1.632019 0.23209053 0.089220457
1.6714282 0.23753351 0.11248399
1.6554481 0.24162629 0.10923178
1.6412866 0.24316829 0.093674429
1.6339493 0.24249312 0.085449636
1.6544509 0.26500702 0.09848237
1.6429646 0.26038978 0.093412846
1.6306381 0.26459694 0.084051386
1.6159687 0.26382247 0.076175332
1.6565603 0.27318931 0.098205321
1.6443378 0.27809298 0.09196952
1.6307607 0.2775459 0.083412908
1.6179365 0.27236336 0.076551974
1.6443937 0.29158863 0.090016223
1.6323603 0.29427758 0.085061803
1.6576551 0.31934887 0.095057674
1.6482366 0.31206873 0.090301558
1.6324799 0.30740637 0.086499356
1.6558853 0.3358295 0.10389448
1.6443292 0.32678515 0.10117711
1.6562226 0.35082865 0.11029248
1.6526228 0.36933553 0.10710174
1.6433018 0.36939853 0.10209438
1.6537321 0.38609201 0.10964304
1.6418949 0.38538221 0.10248438
1.655002 0.40332887 0.1074981
1.6404929 0.40257043 0.10092661
1.6688626 0.42687413 0.12048832
1.656877 0.42709705 0.10747859
1.6435169 0.42401794 0.098470569
1.666939 0.43931666 0.12129335
1.6551901 0.43978521 0.10863526
1.6405337 0.43701547 0.09860535
1.6655231 0.45549819 0.11848183
1.6576321 0.4604724 0.10888714
1.6720718 0.47723797 0.11530761
1.6575115 0.47546315 0.1087276
1.6703701 0.49022195 0.11478459
1.6569941 0.49920565 0.11289924
1.6672401 0.51060271 0.11218517
1.6574887 0.51133668 0.11009391
1.6580536 0.52882057 0.10429496
1.6452429 0.53254282 0.098959319
1.6553838 0.54625797 0.11043186
1.6455666 0.5395546 0.103475
1.6933903 0.56346244 0.13220707
1.6613566 0.5606879 0.10677295
1.6543204 0.58632404 0.097379737
1.6760349 0.60759085 0.12970077
1.6668094 0.60520488 0.12012196
1.6802312 0.62623972 0.12222987
1.6688048 0.61520672 0.12364917
1.5796157 -0.79947543 0.0014617924
1.577382 -0.78920913 0.00052482425
1.5713261 -0.78653049 -0.011364899
1.557464 -0.78174406 -0.012322308
1.5711529 -0.76044905 -0.016664656
1.5624459 -0.76647455 -0.016414728
1.5690992 -0.75071514 -0.014640499
1.5669103 -0.75485831 -0.020082099
1.5600274 -0.73108864 -0.0078227213
1.5699123 -0.71329051 -0.015076578
1.5589832 -0.70864773 -0.016784025
1.5709532 -0.69588828 -0.013063358
1.5566448 -0.69573361 -0.019365558
1.5680462 -0.67713904 -0.0055700997
1.5808716 -0.66046149 -0.00567909
1.5667988 -0.65592563 -0.0035295372
1.5655774 -0.63936782 -0.0086874608
1.5680132 -0.6264677 -0.010670767
1.5653906 -0.60174817 -0.0059573515
1.5769235 -0.58335805 -0.0012302274
1.5691329 -0.58574134 -0.0055174693
1.5776112 -0.57159704 0.00091103325
1.5672034 -0.56740737 -0.0065900432
1.5541961 -0.5629434 -0.011347618
1.5815741 -0.54640293 -0.006243526
1.5682347 -0.54945546 -0.0081327083
1.5531503 -0.55028087 -0.011057819
1.5817046 -0.5364179 -0.006348439
1.5682218 -0.53211194 -0.0098654646
1.555895 -0.5320583 -0.011033438
1.56699 -0.51361662 -0.010692367
1.5681859 -0.49878559 -0.012088911
1.5670288 -0.47912621 -0.015014085
1.5540996 -0.46975848 -0.0095585231
1.5815086 -0.45608157 -0.0061909375
1.5642982 -0.45914748 -0.0067844121
1.5533644 -0.46082306 -0.011152301
1.5813127 -0.44799376 -0.0060334364
1.5640856 -0.44298533 -0.0057597482
1.5536745 -0.44063297 -0.01113263
1.5644062 -0.42433414 -0.0057520457
1.5541966 -0.42803979 -0.0096382853
1.5675682 -0.40852585 -0.0062012952
1.5677658 -0.38721913 -0.0081881844
1.5645956 -0.369019 -0.0074194013
1.5797442 -0.34730184 -0.0047732787
1.5684499 -0.35172451 -0.0093107335
1.5601863 -0.34716561 -0.015846098
1.581017 -0.3392489 -0.0032354605
1.570731 -0.33628854 -0.01090368
1.5591301 -0.33490562 -0.015892228
1.5638885 -0.30937523 -0.010729625
1.5538607 -0.31413105 -0.014494683
1.5797105 -0.29432419 -0.003039469
1.5676486 -0.29781714 -0.0083130002
1.5525875 -0.29989573 -0.014381035
1.5810316 -0.28166237 -0.00069315528
1.5664016 -0.28460261 -0.0047990093
1.5939369 -0.26112247 0.0094194096
1.588791 -0.26697141 0.0058643152
1.6140467 -0.21980953 0.044024717
1.6423966 -0.20102572 0.057525553
1.6314398 -0.20378461 0.052295934
1.6133125 -0.20824847 0.047665581
1.6450306 -0.19097807 0.060513079
1.6338801 -0.19064318 0.053941038
1.6184075 -0.18811831 0.045698542
1.6409051 -0.16532338 0.065933302
1.632134 -0.17366742 0.056855761
1.6162671 -0.17871995 0.044830959
1.6427761 -0.15414654 0.068652764
1.6294446 -0.1538274 0.057710491
1.6185491 -0.14937165 0.048880599
1.6418717 -0.13735272 0.064975142
1.6308585 -0.13635246 0.056155369
1.6175274 -0.13778825 0.047181379
1.6567541 -0.11427775 0.075489104
1.6430478 -0.11641502 0.067722291
1.6287808 -0.11830233 0.058200337
1.6188606 -0.11589294 0.055202566
1.6547071 -0.10107931 0.07756336
1.6417576 -0.10069805 0.070581995
1.6277015 -0.10219567 0.058475047
1.6180711 -0.10211706 0.050877497
1.6804618 -0.076669864 0.098419085
1.6752133 -0.0786222 0.094850086
1.6567979 -0.082771949 0.071572982
1.6485882 -0.083860092 0.070964955
1.679202 -0.072606727 0.099280559
1.6737666 -0.07099127 0.094410874
1.6423601 -0.061002262 0.07381098
1.638801 -0.045494597 0.073021278
1.6277895 -0.041936729 0.064272709
1.6528097 -0.023567928 0.075628206
1.6411508 -0.031459633 0.072660953
1.6291168 -0.035045799 0.065576576
1.6513258 -0.014567303 0.075470224
1.6436121 -0.0085657984 0.071291842
1.6550672 0.011406936 0.077655934
1.6424201 0.0025126529 0.071612075
1.6572257 0.021926139 0.076729812
1.640751 0.026968004 0.0721431
1.6721411 0.050572958 0.084971927
1.6550026 0.049090322 0.077707648
1.6407313 0.039595995 0.072926871
1.6726869 0.061180953 0.086519502
1.6555237 0.061752457 0.081422329
1.6695747 0.071583532 0.084349953
1.6582435 0.076430537 0.07486517
1.6460235 0.073196843 0.074410558
1.6708233 0.10358232 0.087484047
1.6540749 0.099759616 0.078970335
1.6450961 0.10304487 0.075074047
1.6278645 0.10491632 0.060803365
1.6196727 0.10682333 0.054600354
1.6691566 0.1137127 0.08979068
1.660623 0.11610419 0.077719301
1.644281 0.11483373 0.068769738
1.6266952 0.1141438 0.059662208
1.6196727 0.11080153 0.054600354
1.6695918 0.13420339 0.090589583
1.6604723 0.13169993 0.081638776
1.6521035 0.12755664 0.070060812
1.6696234 0.15028919 0.094455302
1.6600416 0.14895843 0.088605285
1.6727769 0.16930313 0.095330387
1.6724168 0.18917479 0.086286478
1.6582439 0.19139792 0.079277098
1.6692079 0.20700867 0.0910815
1.6584585 0.20332043 0.086712807
1.684927 0.22210158 0.097757831
1.6872985 0.24315242 0.10235668
1.6661446 0.24894074 0.098715164
1.6822058 0.25669545 0.098183237
1.6704483 0.25931516 0.095072299
1.6813017 0.28188068 0.097844757
1.6729269 0.27865976 0.094034083
1.6802518 0.2876949 0.098562658
1.6729738 0.2953077 0.090619147
1.6626515 0.29690203 0.085407197
1.6622244 0.30961323 0.09795554
1.6577531 0.30602857 0.090205967
1.6851354 0.33739638 0.12130044
1.6776172 0.33791274 0.10985792
1.6630601 0.33199188 0.09798789
1.6997941 0.35838598 0.12800422
1.6889673 0.35029662 0.12168536
1.6784141 0.34986794 0.11060957
1.7012599 0.36837 0.12938155
1.692765 0.36881879 0.12022688
1.6843958 0.36607495 0.10698149
1.676578 0.36757833 0.096303038
1.7067895 0.38113841 0.12498233
1.6954679 0.38199216 0.11990692
1.677942 0.37921265 0.10014203
1.7084116 0.40835389 0.12645729
1.7030312 0.40899953 0.11804209
1.6813581 0.40771735 0.10019919
1.7076156 0.41593334 0.1252193
1.6987166 0.4213362 0.11429331
1.6806722 0.42555842 0.1046398
1.6720719 0.42234567 0.099398278
1.6970521 0.44578773 0.11571654
1.6943433 0.46469128 0.10805804
1.6915855 0.474592 0.12403839
1.695401 0.50113219 0.10734788
1.6801522 0.49780047 0.1093348
1.6938038 0.51016706 0.11078869
1.6841092 0.51210576 0.1098153
1.6865885 0.5372079 0.11798058
1.6799747 0.52602637 0.11004118
1.7077986 0.55467325 0.12275074
1.6960188 0.54680449 0.1178298
1.6784782 0.55003673 0.11291635
1.7094762 0.56566203 0.12729229
1.6951729 0.56807262 0.11906197
1.6779978 0.5652582 0.11142944
1.6696482 0.57000983 0.1058133
1.6744696 0.58273506 0.10536674
1.6659001 0.57867897 0.098883353
1.6968175 0.60711271 0.1120877
1.6816053 0.59832078 0.10716386
1.6707096 0.59338677 0.10033409
1.5999855 -0.81437296 -0.010694907
1.5955563 -0.79822421 -0.0020426949
1.5895351 -0.78414857 -0.0052859904
1.5759043 -0.7767666 -0.012797003
1.5861982 -0.76545203 -0.0065294262
1.5760252 -0.76663399 -0.013224526
1.6059512 -0.74517733 -0.0034327796
1.5880451 -0.74732971 -0.0047914125
1.5778887 -0.74757224 -0.011674928
1.6036261 -0.73500532 -0.0012560526
1.592813 -0.73287755 -0.0073785931
1.5814561 -0.7309401 -0.016033946
1.5885586 -0.71091902 -0.0096466085
1.5778811 -0.71123236 -0.010967553
1.5871937 -0.69961977 -0.01075878
1.5841448 -0.69347554 -0.01345414
1.5931811 -0.67577422 -0.013845754
1.5857099 -0.68213665 -0.014717311
1.5939624 -0.65701282 -0.010097049
1.5911797 -0.63969266 -0.0088057239
1.5785552 -0.63926136 -0.011513022
1.5914431 -0.62204325 -0.0064430786
1.5786046 -0.62116235 -0.013659172
1.606115 -0.59995264 -0.0052724509
1.5904111 -0.60416466 -0.006034079
1.5801592 -0.60934573 -0.013668444
1.6016692 -0.58803624 -0.0017631692
1.5936584 -0.58716822 -0.0041171638
1.5911615 -0.56748337 -0.0065889689
1.5870038 -0.55243731 -0.0071774912
1.594558 -0.53060639 -0.0090985261
1.5795203 -0.52587843 -0.011007613
1.6057198 -0.50667042 -0.0049605458
1.5971369 -0.51392275 -0.011403263
1.585691 -0.51325125 -0.017281985
1.6063125 -0.50079918 -0.0054284032
1.5967108 -0.49592188 -0.010654984
1.5835645 -0.49385262 -0.017110281
1.6066473 -0.47828341 -0.0037679281
1.5944628 -0.47778332 -0.0082820756
1.5789241 -0.47764012 -0.013917993
1.5931321 -0.46123129 -0.0086500663
1.5785667 -0.46505052 -0.010665067
1.5948223 -0.4417927 -0.0097391205
1.5827752 -0.43725744 -0.012348839
1.5930214 -0.42457721 -0.0081132893
1.5841448 -0.42961818 -0.013454129
1.5901128 -0.40551803 -0.007957601
1.582613 -0.40251729 -0.014279114
1.6045343 -0.38287526 -0.004024758
1.5924093 -0.38707393 -0.0080770543
1.58391 -0.38725582 -0.013264618
1.6059833 -0.373128 -0.0051685702
1.5963591 -0.3693504 -0.010373076
1.5832644 -0.36896738 -0.012743593
1.5960777 -0.35595062 -0.015309721
1.580623 -0.35824412 -0.01061191
1.5894721 -0.33115485 -0.010012387
1.5807561 -0.32868063 -0.017347891
1.5945098 -0.31532112 -0.0093488973
1.5811148 -0.31800997 -0.017354593
1.5910333 -0.29979163 -0.007405356
1.5837535 -0.30666542 -0.013138358
1.6029536 -0.27133295 -0.0027769809
1.5944297 -0.28060162 -0.0036996086
1.604095 -0.26017499 0.0090592792
1.616757 -0.24426748 0.01951164
1.6470784 -0.21938835 0.034276731
1.631242 -0.22640093 0.031097665
1.63842 -0.21235946 0.045653109
1.6693405 -0.18553469 0.062637538
1.6567429 -0.1869393 0.058584187
1.6685476 -0.17145124 0.070053205
1.655527 -0.17346157 0.059130065
1.6660038 -0.15388162 0.071958646
1.655882 -0.14911938 0.067357577
1.6673757 -0.13870804 0.063059486
1.6579051 -0.13548785 0.061013255
1.6787648 -0.11362729 0.075509205
1.668237 -0.11878951 0.069931164
1.6606573 -0.12439107 0.057401597
1.6918778 -0.093538679 0.085793637
1.6827129 -0.097510725 0.078493088
1.6720966 -0.098073684 0.074356019
1.6921475 -0.081836633 0.091114163
1.6832268 -0.082643397 0.078159377
1.6739476 -0.08136636 0.069159463
1.6920618 -0.066140726 0.090485357
1.6851771 -0.065633856 0.079764754
1.6700035 -0.065165684 0.067454807
1.6560196 -0.0688361 0.067259207
1.6731479 -0.044830881 0.079438038
1.6648734 -0.046412088 0.072648309
1.6764463 -0.020720096 0.079554424
1.6661174 -0.028250577 0.071037494
1.6908751 -0.0059633199 0.08809074
1.679069 -0.010248916 0.082082599
1.6682963 -0.010072839 0.071757838
1.7072461 0.0034629966 0.099394292
1.6963894 0.0065789409 0.091253199
1.6832511 0.0074958075 0.079659663
1.6724495 0.0034573411 0.070219152
1.6932963 0.024846958 0.090606235
1.6807399 0.025221139 0.080925196
1.6674843 0.029090548 0.073111579
1.6932044 0.042133391 0.088332556
1.679775 0.042836644 0.084483556
1.6683724 0.040612768 0.071969941
1.6945111 0.060108215 0.085598536
1.6870898 0.061954748 0.086662546
1.6811224 0.076131098 0.077513121
1.66939 0.081952639 0.073346607
1.6788367 0.098290756 0.082455471
1.6699131 0.096019492 0.07443542
1.6904207 0.11845893 0.088402502
1.6837981 0.11895279 0.085727595
1.7072461 0.14097068 0.099394292
1.6955266 0.13553622 0.091522031
1.6828442 0.13024156 0.087189928
1.7085021 0.14904247 0.10094482
1.697822 0.15247586 0.093394026
1.7067218 0.17585346 0.10134487
1.6924207 0.1708874 0.096966513
1.6812195 0.1747936 0.091516383
1.7086803 0.18748596 0.10082851
1.6951436 0.18734463 0.093692929
1.6850733 0.18377174 0.086855575
1.7100329 0.20525125 0.10026177
1.6967717 0.20490003 0.092086688
1.6800202 0.21036573 0.089138567
1.7121799 0.21790193 0.10326738
1.7006298 0.21748792 0.096667014
1.6983134 0.24739924 0.098239608
1.718809 0.26433688 0.11078034
1.7147276 0.26437327 0.1063455
1.6942158 0.25940955 0.095025897
1.7171696 0.27777815 0.11587206
1.710017 0.2803337 0.10640759
1.6944212 0.28002727 0.093690969
1.7162522 0.2962181 0.11246614
1.7084142 0.29635644 0.10339093
1.69732 0.29472023 0.096044011
1.6824465 0.29868332 0.092272051
1.7095352 0.30824727 0.10400667
1.6963189 0.31387416 0.093705826
1.7033614 0.33694968 0.10199136
1.6925522 0.33315933 0.09408538
1.6832365 0.33065191 0.087607257
1.7335927 0.3500118 0.120084
1.7249364 0.35243943 0.11693279
1.7307287 0.3707929 0.1278266
1.7203532 0.36804816 0.12537073
1.7006522 0.3750138 0.08944156
1.7203847 0.38653761 0.12016948
1.7023579 0.3887262 0.10362763
1.6968528 0.38612157 0.094834723
1.7321184 0.40902564 0.1317924
1.7200139 0.40437359 0.12182558
1.6924864 0.40208593 0.099786721
1.7334734 0.42119744 0.13092501
1.7223364 0.42340189 0.12070137
1.7062436 0.41735685 0.10245746
1.6949283 0.42009193 0.096295729
1.6816524 0.42338365 0.090417415
1.7443709 0.43415633 0.13669586
1.7352011 0.43769544 0.12972996
1.7219423 0.43966016 0.11859827
1.7123468 0.43957362 0.10851639
1.7348855 0.45951277 0.12868325
1.7215905 0.45716646 0.11961611
1.7127545 0.4535147 0.11002906
1.7490264 0.47704268 0.13900895
1.7422462 0.47495097 0.1298424
1.7196404 0.47344497 0.11927728
1.7548121 0.4936268 0.15341277
1.7496097 0.49327591 0.14594588
1.7432063 0.485659 0.13040483
1.7010092 0.49955714 0.11071672
1.7587709 0.51597863 0.14632282
1.7452893 0.51208049 0.14598516
1.7325225 0.51755273 0.13253725
1.7194227 0.51735556 0.1218743
1.7053239 0.51108766 0.11258634
1.7585528 0.52198577 0.14645834
1.745252 0.52402771 0.14314549
1.7395471 0.52544415 0.13039874
1.7223098 0.52709121 0.1205861
1.7074615 0.52634138 0.10721102
1.7189876 0.55107373 0.11776477
1.7091531 0.54004127 0.10766499
1.728987 0.56619787 0.13091663
1.7194279 0.55778074 0.12925354
1.7146543 0.58493876 0.11982489
1.7037325 0.58489639 0.11206547
1.6920863 0.58778805 0.10244251
1.7161388 0.60020584 0.12199682
1.7027825 0.59766918 0.11258301
1.6921921 0.59385282 0.1023712
1.7394536 0.62544417 0.13513711
1.6437083 -0.82669848 0.006511874
1.6353898 -0.82315212 -0.00092296931
1.6287304 -0.82437879 -0.0075821918
1.6068738 -0.82228416 -0.016180741
1.6176934 -0.80061752 -0.01441196
1.6202093 -0.78153807 -0.016397933
1.6122019 -0.78276217 -0.016711459
1.6201435 -0.77332574 -0.016345933
1.6083298 -0.76762962 -0.014229856
1.6216424 -0.74495274 -0.0084829666
1.6200199 -0.73026919 -0.011590539
1.6035266 -0.72556722 -0.014656884
1.6172481 -0.72017372 -0.019241374
1.6061716 -0.71037453 -0.017842576
1.6184312 -0.69006151 -0.020179406
1.6105766 -0.69440216 -0.024321938
1.6191466 -0.67744172 -0.019262057
1.6073852 -0.67743218 -0.017879074
1.6145365 -0.65559721 -0.017091442
1.6211314 -0.634736 -0.017125707
1.6085713 -0.63872266 -0.012361883
1.6194625 -0.62067646 -0.014080636
1.6150532 -0.60349381 -0.0088852858
1.6185926 -0.58332175 -0.013831024
1.6224904 -0.56642032 -0.011983766
1.6104912 -0.56793737 -0.016098797
1.6169258 -0.55037147 -0.0065765143
1.6047686 -0.5504427 -0.011921927
1.6209459 -0.53168344 -0.010505543
1.6050217 -0.5378322 -0.0095475437
1.6251937 -0.51431274 -0.011447473
1.6286719 -0.49428707 -0.0023963985
1.6205662 -0.49582383 -0.0078168213
1.6234881 -0.47815064 -0.0086410576
1.6237233 -0.46149805 -0.012368374
1.6143395 -0.45963684 -0.016935183
1.6181118 -0.44465891 -0.013015532
1.6135013 -0.44918349 -0.016270692
1.6181924 -0.42491439 -0.01286115
1.60867 -0.41722503 -0.012440097
1.6226794 -0.39950949 -0.01575464
1.6099517 -0.40538272 -0.013456342
1.619367 -0.38794073 -0.0099187801
1.6075853 -0.39457753 -0.011580109
1.6138445 -0.36835161 -0.0052888775
1.606205 -0.36174271 -0.01048566
1.6166919 -0.3521497 -0.0076681706
1.6051224 -0.3520216 -0.013060998
1.6296344 -0.33741614 -0.0031428225
1.6195352 -0.33520389 -0.0085247867
1.6086508 -0.33508128 -0.014717774
1.6182084 -0.321583 -0.013095568
1.6065993 -0.32124886 -0.010798334
1.622295 -0.29246536 -0.016315598
1.6148816 -0.29856285 -0.017365055
1.621917 -0.28030542 -0.011272345
1.6061064 -0.28259355 -0.01040752
1.6292479 -0.26239458 0.001641389
1.619326 -0.26752406 -0.0019607097
1.6293199 -0.25268397 0.007326059
1.6611934 -0.22115067 0.02717891
1.6723249 -0.20686914 0.038221952
1.6937637 -0.18436828 0.060102742
1.685074 -0.18589313 0.058837593
1.6714848 -0.19562617 0.051258713
1.7089489 -0.16558671 0.07080958
1.694577 -0.17072815 0.067851007
1.7084711 -0.16018173 0.069506794
1.6912977 -0.15512669 0.068849161
1.7135094 -0.12726484 0.078257412
1.6759322 -0.13441803 0.060756665
1.7118953 -0.1173816 0.076410949
1.7005929 -0.11907312 0.06571418
1.6774287 -0.12632754 0.061798569
1.7103601 -0.10099268 0.078301832
1.7002637 -0.10467786 0.067840196
1.7107998 -0.084564395 0.084961303
1.7221156 -0.062297303 0.088336878
1.7119913 -0.061762296 0.081724457
1.6932459 -0.05870397 0.069585226
1.6804289 -0.060041305 0.066213071
1.7217183 -0.046519857 0.088469617
1.7103378 -0.045441743 0.080424301
1.6933753 -0.045703106 0.072389022
1.6810113 -0.037070401 0.066618711
1.7218488 -0.027131416 0.087171316
1.7111206 -0.027098252 0.079890206
1.6913328 -0.027825369 0.074743152
1.6806021 -0.030314049 0.066091776
1.7234405 -0.0099274078 0.086445957
1.712845 -0.011887573 0.080026761
1.6961284 -0.016820487 0.078023538
1.7208683 0.0085871043 0.094167627
1.7118446 0.015705936 0.086668722
1.7290246 0.032048028 0.099252701
1.7192117 0.022711989 0.091358989
1.7132671 0.025911465 0.085704856
1.7320251 0.04464959 0.10086849
1.7249945 0.043834005 0.089731
1.7173514 0.042361923 0.080508262
1.7223284 0.068967149 0.084424824
1.7055529 0.065355383 0.08450149
1.7347559 0.085218862 0.10027009
1.7197571 0.080942586 0.091372244
1.7045259 0.080690436 0.084388264
1.6931257 0.082962036 0.074541293
1.7347292 0.094290331 0.10139444
1.7211125 0.092697866 0.09330447
1.7055539 0.098166704 0.083686016
1.6956438 0.09392222 0.074710533
1.7051032 0.10917149 0.083993137
1.7195146 0.1380077 0.091156647
1.7089319 0.12754484 0.086230882
1.7287588 0.15232919 0.099428833
1.722501 0.15417935 0.096382506
1.7345544 0.16312143 0.095590137
1.7210822 0.16819149 0.094239339
1.7322859 0.19149427 0.097092763
1.7270919 0.18917231 0.095728964
1.7328531 0.21200295 0.096717067
1.7249643 0.20534472 0.095545731
1.7455043 0.22237207 0.10760073
1.735625 0.22200292 0.10209657
1.7265612 0.22378522 0.096082106
1.7362452 0.24887352 0.099284142
1.7271518 0.24528842 0.090264551
1.7440047 0.2650767 0.10857596
1.7345854 0.2588101 0.10453032
1.7244463 0.25942224 0.091060132
1.7169024 0.26285827 0.083241478
1.7440047 0.2691637 0.10857596
1.732736 0.27448648 0.11471952
1.7187642 0.27547836 0.090342186
1.7100816 0.27612543 0.086054623
1.7482408 0.30183929 0.11298873
1.7366085 0.2975077 0.10802974
1.7612876 0.31459692 0.12756795
1.7497337 0.31285548 0.11731017
1.7356479 0.31108209 0.1061789
1.722124 0.31946194 0.090786368
1.7143736 0.32155937 0.084955066
1.7578276 0.32625005 0.12345947
1.7177297 0.33198938 0.092836514
1.707534 0.32770172 0.087661102
1.7477573 0.35452864 0.11568737
1.7586201 0.37136772 0.12295578
1.7473004 0.36470774 0.12032709
1.7546104 0.38652581 0.12707739
1.7446532 0.3858847 0.11688469
1.7331403 0.39149261 0.11326772
1.755601 0.40506092 0.13116179
1.748253 0.40238199 0.11558162
1.7418588 0.4021793 0.10519274
1.7596078 0.42110053 0.13134652
1.7608887 0.44081119 0.13155867
1.7543 0.45759889 0.12806359
1.7401948 0.4495554 0.12527198
1.7650958 0.48342988 0.14239486
1.7599262 0.47224376 0.1315683
1.7358284 0.47913235 0.1217895
1.7208941 0.47562656 0.10080943
1.7860621 0.50054628 0.14815855
1.7703152 0.4946422 0.14926432
1.7569491 0.49729234 0.12814946
1.7462206 0.49242854 0.1233077
1.7311509 0.48592162 0.11693512
1.7851835 0.50641203 0.1486941
1.7733976 0.50976479 0.14601205
1.7546713 0.50973982 0.12975241
1.743812 0.51088393 0.12252502
1.7339358 0.50708145 0.11512396
1.757888 0.53492355 0.12696703
1.7414538 0.53446198 0.1244686
1.7299443 0.53407693 0.10821577
1.72211 0.53437442 0.10223757
1.745913 0.54715151 0.11729825
1.7397724 0.54636931 0.10774656
1.7427478 0.55992848 0.11889783
1.7407912 0.55821508 0.11066572
1.6540443 -0.83078176 0.0037662862
1.6499295 -0.82601297 0.0017729491
1.6441685 -0.82114142 -0.0015133145
1.6411841 -0.79674596 -0.012098879
1.6339343 -0.80042028 -0.018410709
1.6581575 -0.77890158 -0.0044946065
1.6450413 -0.78343403 -0.0087176589
1.6338857 -0.78363115 -0.016774932
1.659161 -0.77321905 -0.0052589532
1.6480455 -0.7670927 -0.011332192
1.6344161 -0.76859999 -0.020154813
1.6489692 -0.74825722 -0.012269087
1.6578565 -0.72920769 -0.0042652879
1.6494662 -0.73014456 -0.011889527
1.6297143 -0.7247436 -0.014155562
1.6481391 -0.7159946 -0.013452275
1.6260915 -0.71217757 -0.016997581
1.6163207 -0.70680583 -0.023704166
1.646262 -0.68590719 -0.016036537
1.624601 -0.69530118 -0.01615658
1.6159271 -0.7004779 -0.023390712
1.6425511 -0.67231548 -0.0079792328
1.6279991 -0.67589217 -0.013891915
1.6557493 -0.66223586 -0.0026601825
1.6430632 -0.65855366 -0.0068610874
1.627646 -0.65819764 -0.014478467
1.6575325 -0.63496286 0.0011264227
1.6415622 -0.63794327 -0.015845487
1.6310158 -0.64296561 -0.017635668
1.656047 -0.62643439 0.0028228802
1.6436658 -0.62220478 -0.0074840328
1.6337343 -0.6237337 -0.017402072
1.6408724 -0.60562891 -0.0097945426
1.6320888 -0.60434908 -0.012493022
1.6313767 -0.58796155 -0.017398626
1.6448551 -0.56354618 -0.011491843
1.6337575 -0.57114726 -0.013220564
1.6456089 -0.55067444 -0.012338144
1.6437781 -0.53259128 -0.0093281614
1.6573547 -0.51230603 -0.0038831038
1.642222 -0.51374751 -0.0051489826
1.642253 -0.49867263 -0.0086138844
1.6434085 -0.47627011 -0.010859278
1.6309497 -0.47553283 -0.0093108071
1.6451588 -0.46175903 -0.01235062
1.6365809 -0.45677751 -0.013696945
1.6416334 -0.4385193 -0.016334238
1.6308477 -0.44238722 -0.016336724
1.6557493 -0.41900784 -0.0026601825
1.6420554 -0.42177698 -0.0048229801
1.6284196 -0.42271507 -0.011207334
1.6556489 -0.41073334 -0.0025837077
1.6434718 -0.40702814 -0.0071805571
1.6288407 -0.40757304 -0.014345158
1.6427318 -0.39087224 -0.010065144
1.6352837 -0.39001229 -0.013721517
1.6329638 -0.36957571 -0.010879466
1.6402881 -0.34805718 -0.011404094
1.632109 -0.35502189 -0.010213795
1.645412 -0.33194232 -0.007803292
1.6339973 -0.32880172 -0.011684505
1.6445577 -0.31717491 -0.0095275659
1.6296197 -0.31515762 -0.014959643
1.6416274 -0.29708132 -0.0072684749
1.6278745 -0.2986263 -0.013265587
1.6457411 -0.28078872 -0.0074584498
1.6330036 -0.28347811 -0.010910549
1.6488025 -0.26299378 -0.0035259021
1.6535162 -0.24515207 0.002884709
1.6476222 -0.2511808 -0.0015949943
1.6677183 -0.22897474 0.013904951
1.6590579 -0.23471653 0.010194188
1.7101817 -0.18612866 0.051064942
1.692305 -0.19566701 0.043794807
1.7233728 -0.17186782 0.061692886
1.7260581 -0.15148297 0.078255154
1.7155443 -0.15387163 0.072478458
1.7057259 -0.15083118 0.063226238
1.7261436 -0.13772392 0.080461815
1.7150064 -0.13746101 0.071038038
1.7026167 -0.13510843 0.060470492
1.6951548 -0.13572951 0.054187153
1.7284746 -0.11772655 0.077843107
1.7255431 -0.10529464 0.077386491
1.7310272 -0.077670291 0.079777084
1.7474897 -0.062043115 0.088791087
1.7329472 -0.069005065 0.085379943
1.7504197 -0.046304327 0.089535609
1.7306653 -0.041547131 0.088519096
1.748219 -0.030859409 0.084918693
1.7351683 -0.027276261 0.085509144
1.7416341 -0.00880998 0.086053006
1.7330452 -0.010840552 0.086126
1.739446 0.011739984 0.092350207
1.7418581 0.026125835 0.09317112
1.7496428 0.044125479 0.098304302
1.7278328 0.052692268 0.085568592
1.7192467 0.052646909 0.079221673
1.750257 0.06776543 0.10610738
1.741488 0.062960491 0.098237015
1.7303095 0.062156957 0.085334703
1.7175863 0.056733284 0.077914886
1.7495261 0.07932131 0.10737972
1.7409101 0.077890992 0.099171609
1.7315861 0.075199142 0.090323806
1.755561 0.096828587 0.10186544
1.7453557 0.10381741 0.098108448
1.7294974 0.10303828 0.085776478
1.7609884 0.1179351 0.099598788
1.7497983 0.11737896 0.091428235
1.7313421 0.1143439 0.084835559
1.7630872 0.13468829 0.099786974
1.7498305 0.13316324 0.089820787
1.7339631 0.1331965 0.084156603
1.7616838 0.15434043 0.097769104
1.7526176 0.15143603 0.090254605
1.76333 0.17120148 0.10157523
1.7497349 0.17079261 0.093305461
1.7641003 0.18618913 0.10144779
1.7474428 0.18785799 0.095605008
1.7839416 0.21189147 0.12358749
1.768044 0.21339847 0.11458413
1.7546875 0.20437899 0.10463065
1.7404872 0.20629731 0.098896503
1.7847036 0.22024328 0.12311206
1.7721139 0.22809935 0.11517748
1.7561734 0.22367963 0.10842467
1.7436765 0.23275542 0.1040052
1.7581079 0.23929003 0.10378032
1.7480659 0.24124448 0.092563555
1.783421 0.26635027 0.1250999
1.7758223 0.26721185 0.11918058
1.7561957 0.26080704 0.1018519
1.7855089 0.27335685 0.12634172
1.7709647 0.27783337 0.11776011
1.7563139 0.27903673 0.10957158
1.767969 0.29586354 0.12034278
1.7567526 0.29543695 0.10868429
1.7858832 0.3210251 0.12712018
1.7706362 0.30660334 0.12955058
1.7429129 0.31914666 0.09970592
1.7993175 0.32991287 0.13536911
1.7880896 0.33133683 0.12930436
1.7703224 0.33112428 0.12145872
1.7590764 0.32950598 0.10445958
1.7482827 0.33136973 0.090862885
1.7391416 0.33102328 0.082853436
1.7509767 0.34360278 0.1088305
1.7503111 0.34152684 0.092431851
1.7763126 0.37889892 0.11648881
1.7752655 0.40436172 0.12428053
1.7867461 0.42607734 0.1242118
1.7853436 0.44057843 0.13016672
1.7759315 0.4506157 0.1309569
1.7730267 0.4506157 0.12805219
1.7893583 0.4788788 0.14302829
1.7824773 0.4776409 0.13161027
1.7721957 0.47056788 0.12573621
1.7865888 0.49091014 0.14550312
1.7813343 0.48902613 0.13936476
1.799646 0.51270479 0.14105985
1.789461 0.52187371 0.13670823
1.8062353 0.54522425 0.14994709
1.7974068 0.55150968 0.14280802
1.7727174 0.54927146 0.11876235
1.7431257 0.54466468 0.099565215
1.7935648 0.56034327 0.14045852
1.7862202 0.56084257 0.13399777
1.777482 0.56084234 0.12525959
1.7908912 0.6019935 0.14941649
1.8318164 0.62529981 0.17658886
1.8242959 0.62163621 0.16712365
1.7785441 0.62799466 0.12932687
1.7858155 0.63996893 0.12952727
1.779415 0.64888185 0.12878349
1.6810589 -0.8319515 -0.0063418429
1.6675869 -0.83227766 -0.0034092092
1.6811934 -0.82160354 -0.0064428891
1.6713599 -0.82380074 -0.010838574
1.6572368 -0.82573605 -0.016728919
1.6718264 -0.78274465 -0.007992656
1.6677142 -0.76645672 -0.010291787
1.684276 -0.74386072 -0.0021144915
1.6731795 -0.74763966 -0.010744313
1.6827735 -0.73621035 -0.0034960308
1.6730126 -0.73140091 -0.0091353096
1.6867672 -0.70777738 0.0014292238
1.6688124 -0.71232569 -0.0074515166
1.6476266 -0.70810419 -0.020564593
1.6800472 -0.69792265 0.0032528583
1.6693863 -0.69274908 -0.0070151957
1.6557256 -0.69265324 -0.020759193
1.6677619 -0.6766839 -0.011810028
1.6615051 -0.68186069 -0.017410301
1.6698995 -0.65800107 -0.009450797
1.6603248 -0.65408015 -0.018237045
1.6689034 -0.64387774 -0.007507761
1.6575063 -0.64240336 -0.019062862
1.6676748 -0.62153465 -0.010887147
