# .PCD v0.7 - Point Cloud Data file format
VERSION 0.7
FIELDS x y z
SIZE 4 4 4
TYPE F F F
COUNT 1 1 1
WIDTH 1463
HEIGHT 1
VIEWPOINT 0 0 0 1 0 0 0
POINTS 1463
DATA ascii
0.11856204 -0.33241153 1.3771945
0.1285875 -0.33122924 1.3716849
0.11887987 -0.31534329 1.3809216
0.13347736 -0.31457821 1.3726898
0.12172715 -0.29935145 1.3834554
0.13376243 -0.29686195 1.375996
0.12555079 -0.28721532 1.3855001
0.13617879 -0.27904144 1.3814092
0.14460939 -0.27110034 1.3685
0.13780393 -0.2604636 1.3794057
0.1486329 -0.25906792 1.3722663
0.13828442 -0.24358486 1.3812501
0.15238944 -0.24172957 1.3742588
0.16371694 -0.23702633 1.37135
0.14165829 -0.23233458 1.3844001
0.15328304 -0.22515962 1.378353
0.16475487 -0.22530073 1.3718748
0.15496832 -0.2074496 1.3819495
0.16553521 -0.20495796 1.3773483
0.15707101 -0.18953961 1.3813871
0.16739929 -0.18873459 1.3771396
0.16024067 -0.17300518 1.3818462
0.16987994 -0.17018966 1.3753546
0.18123005 -0.16350961 1.3685
0.16025127 -0.15968934 1.3850001
0.17080578 -0.15350839 1.3801677
0.18399109 -0.15075302 1.372617
0.17231409 -0.13639137 1.3821863
0.18424186 -0.13483672 1.3752896
0.17668584 -0.1175797 1.384131
0.18680109 -0.11623722 1.3777679
0.18988827 -0.099569172 1.3780481
0.20073193 -0.095803186 1.3714584
0.19421607 -0.081470706 1.3813332
0.19990966 -0.082927451 1.3710576
0.19268137 -0.063465916 1.3832699
0.20313323 -0.060984109 1.3752222
0.19550562 -0.051617987 1.38205
0.20834456 -0.04541162 1.3746722
0.21908112 -0.038765781 1.3690418
0.20875408 -0.025821634 1.3784363
0.21979594 -0.025538186 1.3706968
0.21173957 -0.010498905 1.3820578
0.22336709 -0.0090217767 1.3743521
0.21589813 0.0082793869 1.3853438
0.22312976 0.0090479627 1.3810833
0.22688298 0.025938286 1.3822367
0.23840031 0.028462633 1.3772099
0.22994097 0.042960905 1.3841392
0.24098727 0.046694074 1.3775532
0.25218257 0.052816667 1.3685001
0.24261296 0.058797725 1.3792208
0.26059482 0.05841494 1.3727958
0.27881181 0.059923396 1.3738123
0.29836538 0.064103447 1.3790778
0.31407902 0.066386826 1.3733314
0.32541198 0.066549167 1.36845
0.30368727 0.07715334 1.3820751
0.31269658 0.081800625 1.3760116
0.30313528 0.1018627 1.385625
0.31467152 0.098858312 1.3776436
0.32812554 0.10379168 1.3690312
0.30287296 0.109115 1.3857501
0.31534985 0.11573128 1.3754655
0.3270238 0.11149655 1.3694501
0.30358037 0.13964856 1.38055
0.31357095 0.13463274 1.3749866
0.3038125 0.14900875 1.3795
0.31008193 0.15353355 1.3757246
0.31428152 0.17128238 1.3797414
0.30542094 0.19197807 1.3815501
0.3142795 0.18997777 1.3744297
0.32554275 0.19710632 1.3690001
0.15428013 0.21537437 1.383375
0.30478811 0.21118574 1.3786876
0.31528762 0.20697497 1.3757848
0.32568127 0.20762992 1.37345
0.15451254 0.225739 1.3798696
0.16439599 0.23000149 1.3809167
0.30545133 0.22089279 1.3816876
0.31572127 0.22379175 1.3766682
0.32572728 0.2257044 1.3719306
0.13598739 0.24430437 1.3788413
0.15570644 0.24086043 1.3792592
0.16781746 0.24357674 1.3808451
0.31880772 0.24454525 1.3789514
0.32644841 0.24351485 1.3760415
0.14156669 0.252422 1.3835001
0.15767042 0.26573077 1.3813332
0.16751046 0.25656813 1.384675
0.32036719 0.25880063 1.3792627
0.32469663 0.26074323 1.3761001
0.15865871 0.27698356 1.3790326
0.16943705 0.2790162 1.3804948
0.18972376 0.28424546 1.3791072
0.31936181 0.27978596 1.380891
0.32634401 0.2833516 1.3723929
0.15642002 0.29945067 1.383621
0.17003754 0.29677027 1.3798712
0.18787028 0.29691789 1.3791416
0.20255154 0.3028309 1.3812084
0.31808105 0.29598689 1.377786
0.32846799 0.29698518 1.3736395
0.15347813 0.31525499 1.3839413
0.17118509 0.31337157 1.379436
0.18769178 0.31586051 1.3764706
0.2010628 0.312352 1.3773501
0.31605235 0.30894449 1.3781873
0.3246699 0.30607218 1.3750001
0.15561761 0.32509491 1.385
0.17140615 0.33252841 1.3771042
0.18711786 0.32781261 1.3697362
0.17262463 0.34291872 1.3775001
0.24956907 -0.54382706 1.3987501
0.2589002 -0.5480122 1.3945833
0.24270053 -0.52976966 1.3946147
0.22989576 -0.50718915 1.4029
0.24131662 -0.51365 1.3927445
0.10194424 -0.41650742 1.3955001
0.1161805 -0.42336532 1.3922857
0.085115008 -0.40031007 1.3970313
0.094542854 -0.41086164 1.3981252
0.085916795 -0.38742223 1.3914673
0.094245061 -0.38241842 1.3889724
0.087336995 -0.36829495 1.3946315
0.096005775 -0.36930212 1.3889315
0.087144323 -0.35176501 1.3979547
0.098580994 -0.35065091 1.3921108
0.1104511 -0.34621826 1.3871073
0.087648101 -0.33611345 1.4019334
0.099459238 -0.33321595 1.394377
0.11006679 -0.33430889 1.3868182
0.10235096 -0.3175303 1.3970234
0.11049662 -0.31286684 1.3924502
0.1059678 -0.30243257 1.4023334
0.11426724 -0.29654801 1.3909167
0.120107 -0.27919623 1.3917851
0.12885822 -0.27699694 1.387091
0.11774434 -0.26065972 1.3975983
0.12837416 -0.26145324 1.3890003
0.11892416 -0.24461353 1.3970834
0.1294786 -0.24170342 1.3908277
0.12224438 -0.22610277 1.3995763
0.13405412 -0.22472954 1.3938692
0.14461792 -0.22176939 1.3868752
0.1236389 -0.21343367 1.4032501
0.1357092 -0.2075416 1.3998728
0.14585881 -0.20695248 1.3913473
0.13815571 -0.18979563 1.4002173
0.14931422 -0.18769699 1.3910663
0.14111906 -0.17471729 1.3989667
0.15158035 -0.17079315 1.3905326
0.15524507 -0.15255746 1.3928556
0.15490806 -0.13401775 1.4003258
0.1662384 -0.1326195 1.3941029
0.15608069 -0.11788316 1.3995688
0.16888379 -0.11725978 1.3949361
0.15923867 -0.10428273 1.3995963
0.17188187 -0.099126786 1.3952073
0.18303424 -0.095026493 1.3879791
0.17555514 -0.081411451 1.3946718
0.18473488 -0.080756426 1.3877326
0.17535703 -0.062690124 1.4017882
0.1839866 -0.063727207 1.3946892
0.17672133 -0.047525376 1.4023472
0.18821551 -0.045119788 1.3965688
0.20112027 -0.040475238 1.3910501
0.19031365 -0.027249839 1.3991652
0.20057184 -0.028170966 1.3908182
0.19232841 -0.0097433971 1.3988311
0.20336807 -0.0081254514 1.3900542
0.1935806 0.0087149236 1.3972757
0.20629145 0.0083135013 1.3909454
0.19431393 0.021458412 1.4009582
0.20684485 0.02685727 1.3938333
0.21819788 0.029511582 1.3869705
0.21177053 0.043953139 1.3957947
0.2218506 0.046648856 1.390805
0.21346916 0.057147369 1.3998057
0.22554086 0.060964521 1.3964694
0.24230607 0.065244883 1.3956252
0.26027808 0.064440794 1.3934644
0.28139746 0.066442437 1.3968182
0.29125893 0.068356022 1.394889
0.29853275 0.08087416 1.394475
0.30697581 0.086109914 1.3885835
0.29939297 0.098228976 1.3927794
0.30651525 0.090619832 1.3865001
0.30002412 0.11739343 1.394974
0.30768549 0.11961583 1.3865501
0.29830468 0.13405865 1.39496
0.30746683 0.12859561 1.3923216
0.29771796 0.15349042 1.3948998
0.14127398 0.17743309 1.4035834
0.15125145 0.17747749 1.403091
0.29916525 0.17123282 1.3953366
0.30800733 0.17662507 1.3880001
0.12436762 0.19663982 1.3982501
0.13600749 0.19136748 1.3990443
0.15158822 0.18543129 1.4031469
0.28455117 0.1933493 1.4030961
0.29653674 0.18878058 1.395182
0.30879608 0.18290262 1.3878214
0.12435279 0.20129354 1.3980833
0.13491909 0.20611076 1.3943923
0.15328735 0.20944412 1.3970903
0.16861987 0.2099231 1.3922585
0.18029912 0.21512027 1.3967501
0.28537977 0.20541406 1.4022918
0.29675308 0.20670727 1.3951631
0.30875647 0.20381837 1.3913752
0.13850638 0.22567376 1.3959857
0.14776912 0.22344129 1.3918251
0.17151229 0.22469118 1.3941721
0.18329298 0.22583932 1.3980311
0.28721172 0.2196238 1.3986499
0.29832652 0.22466759 1.3945508
0.31029165 0.23118666 1.3918889
0.13421501 0.24045339 1.3946024
0.15068117 0.24469008 1.3941545
0.17626771 0.24171081 1.3913803
0.18403791 0.24814799 1.3985314
0.30293778 0.24170859 1.3951252
0.31170109 0.24207892 1.3912778
0.13635625 0.26166248 1.3941562
0.15199119 0.25942671 1.39127
0.17225614 0.26282522 1.3898717
0.18611722 0.26175177 1.3959332
0.2095333 0.26651824 1.4021947
0.21795136 0.2672365 1.4018612
0.30147725 0.262407 1.3981439
0.31343436 0.26249731 1.3907291
0.14006272 0.27693945 1.4000114
0.15029167 0.27920705 1.3939824
0.17560582 0.27116209 1.3965834
0.19337252 0.27423659 1.3900001
0.20976131 0.27643022 1.4030625
0.2214582 0.27732763 1.40295
0.300322 0.27860847 1.3983301
0.31162238 0.27759853 1.3889115
0.14002746 0.29881525 1.4019711
0.15024161 0.29570991 1.3972917
0.20127785 0.30008918 1.40295
0.28593168 0.30444834 1.39925
0.29949224 0.29871404 1.396024
0.31010455 0.29729232 1.3888571
0.13944656 0.31479034 1.3926799
0.14602056 0.31188259 1.3921165
0.19236891 0.31691167 1.3880132
0.2081717 0.31646612 1.391654
0.22110972 0.31957254 1.3957835
0.28539559 0.31129268 1.3975835
0.29618213 0.31309953 1.3928988
0.30988485 0.30968222 1.3894792
0.13916968 0.33255255 1.3957199
0.15228914 0.3342776 1.3882868
0.1637082 0.33879247 1.3881251
0.21010621 0.33117992 1.3944321
0.22437577 0.32976699 1.3974539
0.23505005 0.32869664 1.40285
0.14133982 0.34761027 1.3970001
0.14724152 0.34709254 1.3908381
0.16553804 0.34438065 1.3872501
0.25049961 -0.55931729 1.41725
0.26345214 -0.56196654 1.415575
0.24510317 -0.54837883 1.4138027
0.25870585 -0.55504447 1.4110835
0.22852783 -0.52723879 1.4114999
0.23758669 -0.53249055 1.4097207
0.20874698 -0.51050514 1.4162683
0.22421692 -0.51416075 1.4081744
0.23561974 -0.51969147 1.4062501
0.069626078 -0.39792746 1.4145001
0.079981342 -0.40222922 1.41285
0.06849508 -0.38776517 1.4160463
0.078637436 -0.38589838 1.4095064
0.070567481 -0.36958793 1.4215312
0.078986578 -0.36951941 1.4131223
0.079981558 -0.35140529 1.4155077
0.070421979 -0.33442011 1.4186002
0.080462784 -0.33163244 1.4113371
0.083144464 -0.31549352 1.4131973
0.095405765 -0.31196165 1.4068834
0.085819177 -0.29889998 1.4200002
0.097873434 -0.29697162 1.4100205
0.11019723 -0.2922852 1.4054251
0.087358981 -0.28536141 1.4201
0.098512858 -0.2790986 1.4133751
0.11092274 -0.27908349 1.4069892
0.10027192 -0.26115471 1.4129465
0.1092722 -0.26139709 1.4064546
0.10224213 -0.24422058 1.416615
0.11255284 -0.24076194 1.4126668
0.10604528 -0.22414032 1.4190625
0.11445468 -0.22526519 1.4161845
0.11810596 -0.20747152 1.417025
0.12724987 -0.20301549 1.40425
0.12204169 -0.1897746 1.4188393
0.12930687 -0.18722175 1.4079916
0.12188004 -0.17154843 1.4192222
0.13303171 -0.17026755 1.4126999
0.14501971 -0.16423184 1.4080502
0.12290451 -0.1549419 1.4206593
0.13451754 -0.15262215 1.4135263
0.1478889 -0.15313566 1.4054079
0.1372989 -0.13678123 1.4145342
0.14649588 -0.13728927 1.4061667
0.13979979 -0.11637624 1.4186391
0.14806966 -0.11484355 1.4124554
0.14106396 -0.10334235 1.4171946
0.15231983 -0.0983354 1.4147452
0.16321059 -0.093283899 1.4054999
0.15361683 -0.080874763 1.4159194
0.16709673 -0.080138132 1.4063541
0.15470092 -0.06367667 1.4166539
0.16669019 -0.063210182 1.40825
0.16020574 -0.046988234 1.41625
0.16886993 -0.04457124 1.4077388
0.16182268 -0.027126925 1.4190937
0.17159051 -0.026976295 1.4117146
0.18217705 -0.024393566 1.4046819
0.1618405 -0.016446505 1.41925
0.17178679 -0.010032875 1.4174782
0.18349314 -0.0083277458 1.4091339
0.17650287 0.0069872881 1.4200835
0.18534893 0.0082107391 1.4137677
0.17753999 0.021571642 1.4214169
0.18903373 0.028015034 1.4156575
0.19909343 0.035442479 1.40575
0.19418544 0.044684067 1.4183501
0.20317394 0.04562119 1.4073544
0.19775856 0.054862179 1.4215001
0.20682618 0.063061699 1.411653
0.22394432 0.069499925 1.4097168
0.24218616 0.069761537 1.4102498
0.26113981 0.069784723 1.4107187
0.27883539 0.069783904 1.4106964
0.11800458 0.086204484 1.4214774
0.20813578 0.07377217 1.4193335
0.21879725 0.073763497 1.4191667
0.2489171 0.073897779 1.4217501
0.26450884 0.077418119 1.4208906
0.27929118 0.08155974 1.4141953
0.29211128 0.081975751 1.4077408
0.11738788 0.096678123 1.4204553
0.12733765 0.10047805 1.4209502
0.26776436 0.10221995 1.4187224
0.2789396 0.098794542 1.4146004
0.29266688 0.099260628 1.4066482
0.12072044 0.12344612 1.4172188
0.13222885 0.11917762 1.4180715
0.26786682 0.11676926 1.4204643
0.27892703 0.1175155 1.4171953
0.29296514 0.11646022 1.4115554
0.11762445 0.13264474 1.4185073
0.131559 0.1336116 1.4166465
0.26808771 0.13520607 1.41625
0.27870363 0.13535404 1.4144012
0.29070815 0.13548374 1.410587
0.11997063 0.15937752 1.4090682
0.13420789 0.1579776 1.4069999
0.14517705 0.15989199 1.4110833
0.28013137 0.15237488 1.4125736
0.29000708 0.15292986 1.4067292
0.11981291 0.1698375 1.413528
0.13431942 0.17083152 1.412472
0.15201102 0.17189775 1.4153751
0.17106925 0.17479296 1.4192131
0.18233731 0.17854048 1.4217501
0.28057075 0.17117848 1.4143044
0.29036799 0.1715243 1.409935
0.11980622 0.18915468 1.4181447
0.13465421 0.18803167 1.4086349
0.15512826 0.19271052 1.4102191
0.16871597 0.18652284 1.4183484
0.18233731 0.18091874 1.4217501
0.27851185 0.18803661 1.4164759
0.2895366 0.18407273 1.414
0.12263829 0.20597565 1.4133089
0.13353652 0.20926571 1.4045
0.15470555 0.20129526 1.411778
0.17137368 0.20498094 1.411274
0.18691197 0.20933042 1.4164141
0.28278032 0.20768881 1.4149092
0.12048501 0.22402608 1.4131564
0.13123699 0.22571319 1.4084002
0.19137676 0.22637558 1.4160624
0.20393705 0.23261814 1.420375
0.26890799 0.23067184 1.4205834
0.27968967 0.22608502 1.4150833
0.29054838 0.2305786 1.4103057
0.10720833 0.24580066 1.41875
0.11881676 0.2436198 1.4140798
0.12855461 0.24183781 1.41085
0.19067332 0.2431232 1.4107498
0.20610036 0.24336228 1.4159294
0.21915679 0.24768645 1.4176562
0.26882124 0.25078878 1.420125
0.27872235 0.24288577 1.4154919
0.29487455 0.24366945 1.4103725
0.12076459 0.25447813 1.413125
0.1295405 0.25991645 1.4132187
0.19559802 0.26207426 1.4125003
0.20562348 0.25991729 1.4132981
0.22226614 0.25876644 1.418287
0.26652727 0.25705391 1.4193
0.27931538 0.2609272 1.4128031
0.29391745 0.25815332 1.4073335
0.13462891 0.28179625 1.4108962
0.19558047 0.27248409 1.4115
0.20400928 0.28110042 1.4075162
0.22753613 0.27994063 1.409574
0.23700181 0.2795853 1.4215937
0.28422308 0.28000042 1.4131554
0.29113314 0.27954808 1.4047369
0.12516269 0.29787916 1.4125
0.13245635 0.29591742 1.4064341
0.20816176 0.2958259 1.4058663
0.2253679 0.29733574 1.409282
0.23649341 0.29646942 1.4114794
0.26909333 0.30098018 1.4215627
0.27973568 0.29732698 1.4135309
0.29313028 0.29425329 1.4054785
0.12312749 0.31548932 1.4108586
0.13148221 0.31507051 1.4071563
0.21339017 0.30731136 1.4070001
0.22672668 0.31292385 1.4079647
0.24181926 0.31555331 1.414619
0.2690815 0.30810058 1.4215001
0.27893838 0.31439126 1.4152243
0.28966254 0.3212043 1.406
0.1175606 0.33433524 1.415619
0.13069144 0.33226025 1.4076582
0.2424328 0.32901421 1.406119
0.26429775 0.33303258 1.4213499
0.28091571 0.32696894 1.4156833
0.28971407 0.32478994 1.4062501
0.11815252 0.35047278 1.4103935
0.13348475 0.35054931 1.4112313
0.13904992 0.36347964 1.4116429
0.24630968 -0.56826365 1.4328701
0.25989354 -0.56935394 1.4305557
0.23136991 -0.54195619 1.4308751
0.24165623 -0.55177552 1.4311668
0.20999968 -0.52531314 1.4330001
0.22309361 -0.53310168 1.4295939
0.19465332 -0.50955313 1.434389
0.20289558 -0.51214308 1.4284168
0.19601753 -0.49848884 1.43665
0.20232457 -0.49708366 1.4295695
0.063220881 -0.39967716 1.4256667
0.059991714 -0.38583204 1.426115
0.061952766 -0.36868852 1.425567
0.065291293 -0.35235819 1.4293834
0.074136667 -0.34854588 1.4254376
0.068519332 -0.33311835 1.4326042
0.073009945 -0.32618135 1.4345626
0.070219122 -0.32232088 1.43875
0.075373903 -0.3155975 1.4301043
0.08027187 -0.29707584 1.4289206
0.087379456 -0.27744284 1.429857
0.087974831 -0.26728398 1.4340001
0.092337735 -0.25918645 1.4316154
0.096887827 -0.24123731 1.4310753
0.10173696 -0.22744019 1.430125
0.10586674 -0.20755498 1.4255835
0.11025084 -0.20283093 1.4235938
0.10575917 -0.19614567 1.4312501
0.11342266 -0.18945719 1.4246211
0.11622933 -0.17131069 1.4275454
0.12224404 -0.15140022 1.4327499
0.13036868 -0.13058048 1.4240973
0.13315107 -0.11869895 1.4251707
0.13785297 -0.099208057 1.4286294
0.14552325 -0.092606254 1.4221668
0.14187191 -0.083117582 1.4309502
0.14444284 -0.080408819 1.4311252
0.14203642 -0.071838394 1.4350001
0.14860478 -0.060400575 1.4312501
0.15704639 -0.044791985 1.4291312
0.15860777 -0.02917329 1.4306842
0.16514252 -0.0066438885 1.4272858
0.17162313 0.0084538339 1.4266331
0.17611772 0.026469409 1.4292188
0.18177073 0.033019222 1.4229001
0.10146432 0.051900256 1.438275
0.11079725 0.052964341 1.4345001
0.18510172 0.045241635 1.4247794
0.10399569 0.062157419 1.4344585
0.11420874 0.064809516 1.4325706
0.19137645 0.061876293 1.4263256
0.1992002 0.068027213 1.4233125
0.089385435 0.079519972 1.4374001
0.098887883 0.080633402 1.4358033
0.11546191 0.079670601 1.4293227
0.13276801 0.082834885 1.4272839
0.19425738 0.074918628 1.4337083
0.2048618 0.076214395 1.4304725
0.22658348 0.075884655 1.4315193
0.24374391 0.076245293 1.4300001
0.26041561 0.082837805 1.4281375
0.10098839 0.0952406 1.4357706
0.11388025 0.10212263 1.4262828
0.13214134 0.097248249 1.4316924
0.26102415 0.098653615 1.435201
0.2702646 0.092121735 1.4277501
0.10412583 0.1231184 1.4376252
0.11576464 0.11671365 1.4288386
0.13452421 0.11458292 1.4272709
0.2599169 0.11622866 1.4331368
0.10134434 0.13441449 1.4375737
0.11354485 0.13900793 1.4281602
0.13807645 0.13934219 1.4318686
0.15350538 0.13916452 1.4358548
0.16614197 0.14191957 1.4335834
0.25078613 0.13740824 1.4393001
0.26084867 0.13461253 1.4351205
0.10253426 0.15385391 1.4369681
0.11594561 0.15256527 1.4286058
0.13477209 0.15125337 1.4284295
0.15288757 0.15222356 1.4318928
0.1684341 0.15148987 1.4320074
0.25086454 0.1446756 1.4397501
0.26250049 0.15137087 1.4339492
0.27210423 0.15460277 1.4287308
0.10250359 0.17129518 1.4369305
0.11123342 0.17125203 1.4307717
0.15627322 0.16656257 1.4302
0.16898943 0.16688266 1.4299675
0.18746634 0.17466749 1.4370229
0.26352242 0.17120793 1.4300439
0.27265418 0.17041937 1.4288979
0.10285426 0.18698919 1.4284142
0.1112176 0.18840745 1.4245138
0.17533551 0.19253397 1.4236933
0.18910497 0.1890122 1.4310217
0.26433867 0.18957132 1.4301945
0.27142859 0.18861395 1.4260314
0.10798287 0.19857389 1.429
0.11780528 0.20850091 1.4273959
0.1760013 0.20234717 1.4245001
0.19082806 0.20299894 1.4284329
0.26338407 0.20667176 1.4286344
0.27511603 0.20798108 1.4262497
0.10603538 0.22670612 1.4285333
0.11270902 0.22453663 1.4269167
0.19522882 0.22339995 1.4273251
0.20294541 0.22812137 1.4297658
0.26323625 0.22560574 1.4284999
0.27503547 0.21980788 1.4262797
0.10496519 0.24323837 1.4290265
0.11211304 0.23818667 1.4279265
0.21391307 0.23679154 1.4288335
0.22740626 0.24643691 1.4293333
0.23530842 0.25066635 1.4330001
0.26151851 0.24295117 1.428924
0.27055189 0.24074142 1.4267499
0.10110627 0.26274937 1.4309087
0.11517061 0.26267725 1.4306368
0.128365 0.26564407 1.4297501
0.2296901 0.26265562 1.4308335
0.24043822 0.26141346 1.4349169
0.26049584 0.26216352 1.4336166
0.27191448 0.26770616 1.43225
0.10309364 0.27885053 1.4332585
0.11682699 0.27892336 1.431605
0.12902705 0.2796306 1.4291502
0.23295237 0.27108887 1.4332501
0.24606487 0.27937329 1.4328048
0.26162928 0.27952155 1.4358277
0.27581853 0.27943504 1.4288884
0.10537416 0.29440248 1.427956
0.11714737 0.29732883 1.4267542
0.1275522 0.29569933 1.4263929
0.24567059 0.29580221 1.423979
0.26082191 0.29553977 1.4258716
0.27279153 0.28923026 1.42225
0.10082479 0.31622884 1.4377363
0.11457632 0.31534246 1.4320396
0.25027975 0.31648618 1.4272918
0.26029974 0.31536463 1.4314996
0.27278051 0.32061908 1.4284167
0.10214452 0.32858694 1.4366169
0.11170991 0.32796526 1.4343847
0.25028196 0.32622087 1.4227501
0.25949353 0.32880113 1.4253751
0.27380311 0.32819638 1.4289616
0.10672437 0.3489584 1.4281499
0.10956433 0.35745347 1.4263126
0.10772596 0.36979964 1.4256001
0.11627761 0.36990646 1.4266119
0.13097686 0.36755937 1.4265951
0.11579427 0.38052791 1.4270834
0.2320451 -0.58014423 1.4576668
0.23748553 -0.57855648 1.4536877
0.23190837 -0.56584883 1.4522502
0.23945074 -0.56672513 1.4473519
0.22831927 -0.54885602 1.4469724
0.23670396 -0.55398148 1.4414998
0.19353989 -0.52337116 1.4523752
0.2079827 -0.53069961 1.445393
0.21990132 -0.53627902 1.442
0.18595089 -0.51157141 1.4505293
0.17830884 -0.48964787 1.4568335
0.18806636 -0.49599993 1.45025
0.18432541 -0.48480311 1.44675
0.061383508 -0.34667936 1.4460001
0.066869907 -0.33588171 1.44955
0.074799359 -0.31306767 1.4497918
0.085080467 -0.28280783 1.4459499
0.088431783 -0.26505479 1.451375
0.093954265 -0.24118418 1.4429375
0.099818312 -0.22619215 1.445775
0.10474964 -0.20847435 1.4504167
0.10690451 -0.19342136 1.44675
0.10987115 -0.19030437 1.446
0.11466148 -0.17072761 1.4492188
0.11910563 -0.15968671 1.4480001
0.12432826 -0.13970074 1.4468
0.12721716 -0.13572371 1.4507501
0.13112378 -0.11357911 1.4470001
0.13668662 -0.096122302 1.4482501
0.14085275 -0.084570743 1.4475001
0.14720826 -0.065340362 1.4505
0.071091518 -0.040028386 1.456625
0.079937041 -0.039135963 1.4563862
0.15356918 -0.045839857 1.4475938
0.071061023 -0.033921119 1.4560001
0.081436716 -0.026505692 1.4495983
0.09480378 -0.024279755 1.4532062
0.15825777 -0.02406756 1.4486072
0.086302906 -0.016758662 1.4461876
0.097821563 -0.0096913567 1.4573455
0.16026159 -0.015563168 1.447875
0.16361861 -0.012744434 1.449
0.0991586 0.0013955659 1.4573752
0.16996329 0.01228952 1.448
0.069807477 0.028168635 1.4552501
0.07877057 0.029651094 1.4554198
0.099255487 0.031909075 1.4491364
0.11759172 0.02913367 1.4531997
0.1766448 0.031246018 1.4512001
0.082484923 0.044011697 1.454267
0.098294504 0.043372296 1.450207
0.11636376 0.044543397 1.4497604
0.12665454 0.05358278 1.4512501
0.17829865 0.036728315 1.45675
0.18186054 0.045291625 1.4502001
0.087527446 0.063085996 1.4464287
0.096411683 0.063212253 1.4439355
0.12168089 0.060803045 1.4462345
0.12991378 0.065165095 1.4496751
0.18699047 0.065599218 1.4486113
0.085585721 0.080730714 1.4525377
0.090168968 0.080229662 1.45
0.13844782 0.076179273 1.4475695
0.14599654 0.086309567 1.4505
0.19067159 0.074705668 1.4489377
0.20834601 0.081649818 1.4539169
0.2263394 0.083501868 1.452389
0.24345583 0.084305577 1.4440147
0.25338244 0.085708335 1.440375
0.068679102 0.10498609 1.4571391
0.082836449 0.10118943 1.4567271
0.096011862 0.10188142 1.4507953
0.10885187 0.10619724 1.4405
0.13923642 0.1011051 1.4414999
0.14993878 0.10166649 1.4503961
0.16665272 0.10695751 1.4508126
0.2318545 0.092648558 1.454778
0.24361822 0.098518878 1.4473838
0.25338978 0.094143607 1.4404167
0.069245301 0.11040289 1.4562501
0.082030736 0.11717978 1.4512775
0.098194145 0.11595919 1.4433099
0.1088566 0.11222607 1.4405625
0.14086428 0.11190746 1.4426501
0.1528652 0.11747355 1.4477956
0.16752182 0.11662731 1.450364
0.24581899 0.11720823 1.4447556
0.25478578 0.12194429 1.4415001
0.084898219 0.13198574 1.4527618
0.09310779 0.13685864 1.4449126
0.15335925 0.13138148 1.4436761
0.17052843 0.13446386 1.444569
0.18212359 0.14070064 1.4484167
0.24456313 0.13571501 1.4486847
0.088910781 0.15359068 1.4475455
0.094487414 0.15158956 1.4419261
0.17705457 0.15479785 1.4483863
0.18333258 0.15676637 1.4531876
0.24357699 0.1535524 1.451894
0.25550863 0.15710229 1.4412502
0.089624844 0.17134748 1.4412501
0.094286047 0.1723024 1.4407501
0.17710626 0.1650496 1.4494687
0.18902545 0.16758211 1.4489734
0.19849947 0.17531051 1.4441876
0.23397362 0.168055 1.4545001
0.24455272 0.17010367 1.4484265
0.2560724 0.17106397 1.4425797
0.087124005 0.19048262 1.4439607
0.095395349 0.19046597 1.4434645
0.20263919 0.19236456 1.4530336
0.22942312 0.19752254 1.4565001
0.24518269 0.19054444 1.4495561
0.25642458 0.18952893 1.4413365
0.087067954 0.2060813 1.4420502
0.099192776 0.20657018 1.44205
0.11168184 0.21005149 1.4441031
0.20504989 0.20729361 1.4452504
0.22722358 0.20745701 1.4557438
0.24324255 0.20611146 1.4507903
0.25586554 0.20810728 1.443174
0.085254811 0.22507845 1.4490088
0.097815841 0.22466332 1.444389
0.11155758 0.21761675 1.4443334
0.20951237 0.2229922 1.4425262
0.2179728 0.22580248 1.447875
0.24963121 0.22659364 1.4503169
0.25636178 0.22346343 1.4470268
0.089179091 0.2454533 1.4470834
0.096361883 0.24330707 1.4481469
0.21504353 0.23410942 1.44175
0.22494751 0.24150281 1.4475
0.24494703 0.24353769 1.4472173
0.25434247 0.24248357 1.4445908
0.089086376 0.26374865 1.4455835
0.095884919 0.2595461 1.444818
0.2442895 0.26215971 1.4473556
0.25370035 0.25980812 1.4464232
0.087596454 0.27548492 1.4476155
0.095378511 0.28060108 1.4427981
0.24144778 0.27169439 1.4454
0.084559508 0.29868016 1.4503599
0.095892407 0.29792115 1.4466022
0.083321981 0.31548652 1.4486804
0.095568739 0.31169498 1.444829
0.087955661 0.32719311 1.4535
0.098873399 0.33469066 1.4498084
0.10907385 0.33700281 1.4434376
0.10198694 0.35212061 1.4519546
0.10926749 0.3436459 1.4460001
0.085953206 0.37065682 1.4539164
0.098866865 0.3689934 1.4486276
0.085046135 0.386446 1.4557396
0.097989321 0.38640028 1.4505532
0.10952534 0.38415399 1.4414375
0.086205825 0.39836159 1.4568001
0.094729096 0.39793637 1.4538612
0.21408488 -0.5769884 1.46825
0.22302808 -0.58056855 1.46375
0.2141031 -0.57335305 1.468375
0.22491637 -0.56840122 1.4658101
0.21170025 -0.54378885 1.4687999
0.22262852 -0.55006117 1.4652084
0.18994556 -0.52906102 1.4715834
0.20440152 -0.53564495 1.4626563
0.15976655 -0.50887972 1.4752501
0.17200373 -0.51089245 1.4671373
0.18096766 -0.5134294 1.4586251
0.16082433 -0.50200534 1.47525
0.17107493 -0.49603844 1.4657501
0.16653013 -0.48161143 1.46575
0.088833101 -0.26257229 1.4680001
0.094544917 -0.24304134 1.461375
0.10087267 -0.22439909 1.4645834
0.10580286 -0.20567212 1.465
0.11577613 -0.16918273 1.46725
0.1218104 -0.15251723 1.4630001
0.12563974 -0.13485767 1.4677501
0.1291329 -0.1309903 1.465625
0.13017128 -0.12467484 1.4635
0.13610801 -0.098232865 1.4615626
0.071976125 -0.07382834 1.47475
0.081222475 -0.079895549 1.4736209
0.14220323 -0.082604922 1.4698334
0.07198222 -0.070133835 1.474875
0.080607414 -0.063617811 1.4725412
0.09390717 -0.058860824 1.4705557
0.14871675 -0.063563764 1.4653751
0.068771005 -0.041090854 1.4707779
0.08211033 -0.048530463 1.4603673
0.095062889 -0.04494651 1.466485
0.15377802 -0.047665481 1.4668751
0.066767551 -0.027629679 1.4723387
0.074989006 -0.019379184 1.461375
0.1012919 -0.028369626 1.4692308
0.10867423 -0.024425182 1.4707
0.15736409 -0.028023437 1.4660001
0.068434142 -0.0084533198 1.4656523
0.080760352 -0.0091212252 1.4610544
0.0987093 -0.009253813 1.463148
0.11419601 -0.0060695116 1.4692082
0.15992497 -0.016999843 1.4670001
0.16487129 -0.0084082372 1.4673333
0.067551881 0.0099437041 1.4713105
0.081166625 0.0087433131 1.4626787
0.098311566 0.010189476 1.459955
0.11731325 0.0085280156 1.4675481
0.13187665 0.012148079 1.4694455
0.16918854 0.0083506582 1.4657917
0.063640863 0.02823814 1.4701668
0.083860859 0.023481868 1.4628333
0.098926842 0.023742739 1.4603455
0.11665478 0.021495735 1.4626429
0.13229673 0.026791394 1.4689167
0.17360151 0.023820654 1.4616251
0.065700591 0.043546829 1.4709628
0.076807633 0.049783655 1.4681752
0.12388152 0.044997048 1.4614583
0.13282785 0.044311669 1.4657432
0.17893517 0.039480612 1.4686667
0.1817625 0.042600363 1.4700001
0.069532104 0.060969241 1.4719845
0.078580171 0.063054658 1.4637305
0.13768712 0.061119556 1.4628673
0.150291 0.063537493 1.4652438
0.1854434 0.061453 1.4650626
0.063782357 0.080888465 1.4691713
0.077520385 0.080466099 1.4590604
0.15466502 0.080365188 1.4611858
0.16654617 0.085411713 1.4653056
0.19354506 0.079096451 1.4652002
0.20811039 0.085595421 1.4693543
0.21932448 0.087421507 1.4622917
0.066963583 0.096992597 1.46893
0.078090459 0.09566085 1.4587717
0.1570286 0.096787229 1.4591937
0.16859634 0.098713517 1.4641335
0.21358141 0.092946723 1.4749501
0.22537556 0.098209761 1.468443
0.23558223 0.10306832 1.4645001
0.068323947 0.1200209 1.4716054
0.075175546 0.12515756 1.465
0.176956 0.11730453 1.4607501
0.18717694 0.12044753 1.4641699
0.22745596 0.11769562 1.468729
0.23827682 0.11666155 1.4660105
0.069449879 0.13019763 1.4735
0.078519933 0.13756175 1.4708307
0.17680101 0.12988919 1.4600279
0.18954594 0.13440235 1.4638834
0.20204894 0.14086094 1.47225
0.22812803 0.13420609 1.4664656
0.23753102 0.13334706 1.4631912
0.067661718 0.15445314 1.4748125
0.08039467 0.1537524 1.4679607
0.19154578 0.15219408 1.4664097
0.2067336 0.15342435 1.4718331
0.22545919 0.15390238 1.464232
0.23580976 0.14654255 1.4583334
0.067103632 0.17066982 1.4674392
0.081050679 0.17120081 1.460551
0.19576009 0.16411033 1.4671001
0.20793881 0.16955827 1.4709091
0.22482732 0.1710678 1.4659094
0.23711745 0.17675027 1.4631788
0.064963117 0.18862678 1.4679533
0.080053985 0.18824796 1.4652439
0.2100614 0.18746357 1.4698603
0.2250506 0.18899257 1.4698306
0.23807907 0.18611865 1.4616318
0.068760648 0.20916776 1.4720001
0.078592636 0.20698619 1.4674371
0.21413173 0.20652427 1.4685715
0.21923226 0.20692319 1.4677812
0.052279618 0.22728743 1.4757501
0.064152151 0.22482741 1.4725233
0.0777466 0.22352518 1.4673002
0.22733025 0.22484119 1.4624143
0.24174905 0.22474195 1.4610001
0.067132905 0.24153663 1.4732823
0.081101663 0.24351342 1.4644376
0.22786075 0.23779768 1.458625
0.23859671 0.23722954 1.4589666
0.068865739 0.26198757 1.4742084
0.081695177 0.26102775 1.4684349
0.092037998 0.26157081 1.4604168
0.066262111 0.27884746 1.4693811
0.079669148 0.27832216 1.4640558
0.090821922 0.2860153 1.4605001
0.068682261 0.2964747 1.4685869
0.078656517 0.29403308 1.4614664
0.090821922 0.28845835 1.4605001
0.077053942 0.3120524 1.4650167
0.083016217 0.33337823 1.462854
0.091670319 0.3379871 1.4594376
0.068085745 0.35153869 1.47177
0.081180364 0.35084173 1.4646275
0.095727116 0.35194093 1.4597429
0.071634486 0.36109078 1.4677501
0.079957418 0.36733279 1.4654261
0.090697542 0.36125484 1.4585
0.071715824 0.38730714 1.4694167
0.077040516 0.38618463 1.4611812
0.071772769 0.40688595 1.4705834
0.07848157 0.40407246 1.4646034
0.20596661 -0.59516114 1.4905277
0.19700289 -0.57833266 1.4923124
0.20730056 -0.58487731 1.4901428
0.21732286 -0.58959061 1.4831787
0.19563523 -0.56592667 1.4888461
0.20830746 -0.56723994 1.4872786
0.22077474 -0.56225806 1.4768666
0.19243796 -0.55016422 1.4891102
0.206149 -0.55170631 1.4848613
0.2202124 -0.55395353 1.4764062
0.17419298 -0.52560407 1.4840502
0.18800239 -0.53422612 1.4809319
0.20074284 -0.53897256 1.4785001
0.15411903 -0.51008499 1.4854466
0.16823149 -0.51962936 1.4840001
0.14064747 -0.49349272 1.4909585
0.15277106 -0.49496394 1.4833136
0.16483165 -0.48934284 1.478
0.15144667 -0.48047519 1.4835346
0.16370673 -0.48472658 1.4790001
0.095850587 -0.24395284 1.4816251
0.10212333 -0.22467585 1.4826666
0.10706671 -0.20564908 1.4825001
0.11176115 -0.19155653 1.4790001
0.052183665 -0.14861345 1.4931785
0.059144635 -0.15094262 1.4932812
0.12316385 -0.15106076 1.4822501
0.048240166 -0.13237777 1.4870803
0.059973039 -0.13344045 1.4886485
0.034150232 -0.11590567 1.4924376
0.04516511 -0.1166041 1.4854645
0.062262591 -0.11658262 1.4858298
0.075176224 -0.11067598 1.4892502
0.045420691 -0.099140197 1.4835057
0.062463265 -0.099057935 1.4830918
0.077143319 -0.098246492 1.4836953
0.10249221 -0.091920249 1.4880834
0.04904015 -0.082629338 1.4822601
0.062442672 -0.081660628 1.4826224
0.076681182 -0.084377684 1.4816912
0.10002936 -0.081197076 1.4867915
0.10981587 -0.079371147 1.48615
0.049395084 -0.064405121 1.485176
0.062401123 -0.06302508 1.4818214
0.078919597 -0.059715405 1.4812502
0.10004504 -0.064535581 1.4848553
0.11063888 -0.05641241 1.48385
0.049972005 -0.043293077 1.4910594
0.061627455 -0.045431025 1.4873693
0.073358297 -0.051731266 1.4777501
0.10481651 -0.044873543 1.4839876
0.11050715 -0.046718143 1.4843056
0.049688447 -0.029553542 1.4876579
0.058618695 -0.025826251 1.4801044
0.10595191 -0.034579273 1.4842501
0.1172624 -0.025124973 1.4838226
0.12906505 -0.024797115 1.493175
0.035328593 -0.0048027104 1.4895
0.046109241 -0.0080735171 1.4883749
0.059879169 -0.010572941 1.4844774
0.11840285 -0.013182027 1.47911
0.12818256 -0.0097547472 1.4829463
0.035346385 0.00018052611 1.4902501
0.046519231 0.002676958 1.4909341
0.059040546 0.0076110987 1.4836372
0.13684684 0.0087306174 1.4803637
0.14678463 0.016608074 1.488
0.17006846 0.0084457221 1.4841667
0.057522345 0.024937406 1.4800148
0.14040104 0.028425751 1.4788541
0.1519918 0.028236363 1.4886001
0.048583955 0.048718702 1.4900262
0.057340302 0.047160797 1.4829688
0.14214894 0.045994803 1.4769772
0.15312223 0.04492962 1.4883953
0.048851386 0.062258434 1.4906379
0.061392866 0.06307663 1.4865975
0.072049335 0.068087578 1.4762501
0.13992314 0.054496594 1.4760001
0.15968361 0.060640488 1.4822693
0.1690549 0.063709684 1.4875833
0.18433771 0.063506663 1.4915476
0.050729085 0.076288834 1.4895457
0.058736339 0.078085847 1.4865001
0.16164194 0.072107784 1.4827501
0.17363337 0.079332158 1.4834814
0.18807827 0.081965156 1.4876934
0.20338868 0.088052623 1.4797814
0.052589592 0.10695782 1.4845001
0.058539081 0.099890925 1.4821956
0.17759353 0.098671399 1.4805386
0.18547663 0.099303149 1.4879675
0.20734805 0.10005872 1.4843984
0.21993181 0.10464531 1.4768928
0.05166674 0.11729643 1.483932
0.060017023 0.11671132 1.4822283
0.18960331 0.11190873 1.4783635
0.20739719 0.11693361 1.4880784
0.21922651 0.11572053 1.4806001
0.063834399 0.13581151 1.4826405
0.072049335 0.13970043 1.4762501
0.20840682 0.133476 1.4884292
0.21998602 0.13579582 1.4853021
0.051676843 0.15450469 1.4880834
0.058734182 0.15142117 1.4799761
0.21271496 0.14585046 1.4844168
0.22130598 0.14623234 1.48375
0.052746058 0.17369485 1.4889168
0.058122352 0.17169146 1.4832501
0.048819043 0.19121838 1.4832046
0.057209924 0.18897003 1.4805769
0.047635518 0.20413868 1.4850091
0.061163094 0.20697349 1.4824014
0.05054713 0.22735016 1.4814724
0.054775603 0.22308043 1.4765
0.048513021 0.2424168 1.4894725
0.059337109 0.24424595 1.480021
0.035334524 0.26931548 1.48975
0.047030877 0.26151502 1.4827987
0.06110689 0.26148075 1.4839586
0.073657803 0.26615539 1.4888
0.033164039 0.2780602 1.491044
0.044965595 0.27993625 1.4896723
0.057372581 0.27948657 1.4799265
0.03539975 0.29353076 1.4925001
0.04500987 0.29450098 1.4926209
0.05989999 0.29648459 1.4868069
0.064118236 0.31598595 1.4880123
0.073009565 0.31647179 1.480725
0.051659502 0.32870263 1.4935001
0.06285052 0.33284408 1.4858754
0.076984905 0.33698127 1.4782189
0.061283037 0.34969661 1.4834048
0.072049335 0.34342664 1.4762501
0.065643348 0.37112531 1.4855431
0.075056195 0.37308189 1.4831345
0.050502069 0.38493735 1.4906156
0.062852241 0.38617894 1.4848044
0.072415374 0.38115978 1.4837501
0.068721995 0.39870226 1.484375
0.072268963 0.40640268 1.4807501
0.068646759 0.41562679 1.4827501
0.17804036 -0.59815764 1.5060939
0.18782306 -0.59706789 1.5005001
0.19801553 -0.59760356 1.4952501
0.17912157 -0.58845204 1.5081249
0.18955776 -0.58550119 1.5016321
0.19801553 -0.5875988 1.4952501
0.17893192 -0.56173158 1.503
0.18865375 -0.56828094 1.503698
0.17845212 -0.54753286 1.5060419
0.18442029 -0.54910767 1.4991355
0.16071855 -0.52326679 1.4972501
0.17065614 -0.5311985 1.5001875
0.18096279 -0.53766942 1.4990001
0.142158 -0.50801462 1.5040001
0.15202509 -0.51590234 1.4997858
0.13313849 -0.49316248 1.503631
0.088613838 -0.27692664 1.506
0.03336503 -0.22103974 1.505286
0.04055088 -0.22100048 1.505018
0.031853613 -0.20560846 1.5085185
0.041561615 -0.2072515 1.5084791
0.030779466 -0.19567162 1.510775
0.047903556 -0.18783493 1.5101427
0.057914801 -0.18421352 1.5100627
0.030515157 -0.16529566 1.5092728
0.047044173 -0.17001319 1.5056314
0.059506148 -0.17042309 1.5087302
0.030526876 -0.15540512 1.5098032
0.044509046 -0.1535989 1.5012083
0.066574641 -0.15360749 1.49537
0.076593496 -0.15146101 1.4999894
0.032546576 -0.13537246 1.5085202
0.041566998 -0.13776547 1.5006667
0.068177365 -0.13660921 1.4964411
0.076947585 -0.13526599 1.4995002
0.032665804 -0.1165858 1.5026138
0.070611365 -0.11885364 1.4981251
0.081303932 -0.11508451 1.5063545
0.097415149 -0.11205705 1.5100327
0.015544049 -0.091615058 1.5035001
0.029074153 -0.096377179 1.501344
0.038685083 -0.094456904 1.4988751
0.086307868 -0.10098547 1.5065715
0.097851768 -0.099245623 1.5066437
0.11177109 -0.094670527 1.5080501
0.013487515 -0.084193967 1.5036591
0.026977425 -0.080319367 1.5013362
0.041485611 -0.079786696 1.4995601
0.092718191 -0.082901023 1.4999722
0.11686692 -0.079010777 1.502844
0.029450215 -0.065287299 1.5035782
0.041768052 -0.061508026 1.5006444
0.10571603 -0.06624411 1.4985001
0.11664435 -0.063514583 1.5004727
0.1263742 -0.056489587 1.5057501
0.035619147 -0.038755074 1.5017501
0.042735662 -0.043521062 1.4981407
0.11870462 -0.04441417 1.5013714
0.13077407 -0.041409962 1.504513
0.033299133 -0.026707925 1.5045002
0.042793132 -0.025923107 1.5008664
0.11952639 -0.033484019 1.50195
0.1354474 -0.028589807 1.5010428
0.033288527 -0.009870206 1.5011539
0.042704359 -0.015807139 1.5020458
0.13784096 -0.0093776938 1.4986407
0.14992054 -0.0090713594 1.5028572
0.16660345 -0.005580341 1.5084286
0.030851558 0.010092051 1.50065
0.044877626 0.012152802 1.4959258
0.14010282 0.0034055167 1.4986609
0.15337825 0.0091963923 1.5011252
0.015596603 0.029198194 1.5085834
0.026939185 0.027929487 1.5081161
0.045569774 0.027769372 1.4988267
0.15713334 0.02023961 1.498875
0.015569896 0.039229617 1.506
0.028511534 0.043336123 1.5039556
0.043642055 0.043122698 1.50425
0.15037493 0.038917035 1.4940001
0.17660376 0.051880162 1.5003002
0.18117404 0.051644821 1.5007501
0.03583261 0.069678783 1.5107501
0.041023057 0.064635262 1.5025717
0.17611955 0.05999716 1.4989287
0.18088733 0.059079103 1.4983751
0.035761453 0.074584618 1.50775
0.045813389 0.080669865 1.5036386
0.050820664 0.099542946 1.5016249
0.055455741 0.092699923 1.4948335
0.19401304 0.100573 1.4973439
0.19924282 0.097087607 1.4964286
0.035820752 0.1239708 1.5102501
0.045265943 0.11700024 1.5008681
0.031901244 0.13482451 1.508827
0.045575891 0.13533673 1.5023704
0.056846451 0.13679902 1.4985418
0.034532078 0.16048007 1.5091251
0.045082305 0.15343642 1.5019584
0.033755049 0.17085496 1.504353
0.045121577 0.1709208 1.5000708
0.033538762 0.19020352 1.5093156
0.043083765 0.18731868 1.5022658
0.033812016 0.20084319 1.5108001
0.042790998 0.21112031 1.5012615
0.030555753 0.22663227 1.5037574
0.04357167 0.22453639 1.4962562
0.01559402 0.24239945 1.5083333
0.025550643 0.23929757 1.5057502
0.040724963 0.24318805 1.4999998
0.032369271 0.26546574 1.5041407
0.040192489 0.2581661 1.4984286
0.02812211 0.27758875 1.5042188
0.032150116 0.2959148 1.5021346
0.047174137 0.30429664 1.5052779
0.056722235 0.3042306 1.5063334
0.032857452 0.3207019 1.4998959
0.046583898 0.31769407 1.501561
0.056948949 0.31287798 1.5042728
0.031019889 0.33325392 1.5029516
0.045016099 0.33399051 1.4989226
0.055424824 0.34005859 1.4940001
0.035775293 0.34837258 1.5083336
0.046493374 0.35085383 1.5003896
0.056852892 0.34910348 1.4957501
0.034623761 0.37000552 1.5040002
0.045387585 0.36884001 1.5008579
0.058569536 0.3687295 1.4960341
0.035115581 0.38969451 1.5071251
0.043808535 0.38706192 1.5028958
0.059311479 0.39596429 1.4975001
0.033265714 0.40404668 1.5089762
0.046030194 0.40525135 1.5038934
0.061956581 0.40697065 1.4980597
0.033863779 0.42072019 1.5091326
0.045682929 0.42403436 1.5057311
0.060628604 0.42093053 1.496893
0.035780728 0.43800288 1.5085626
0.041219555 0.43678662 1.5063411
0.15707992 -0.6012792 1.5210543
0.16987728 -0.60139734 1.5210884
0.15691492 -0.59265375 1.5210625
0.17442998 -0.58824277 1.5222023
0.18184391 -0.57875377 1.5122858
0.17669505 -0.56571043 1.515182
0.18227234 -0.57191145 1.5124687
0.17329063 -0.54983044 1.5214616
0.15591905 -0.5281207 1.5196251
0.16612852 -0.53705442 1.51925
0.1366149 -0.51162434 1.5228076
0.14786714 -0.51920986 1.5195833
0.12427936 -0.49260929 1.5264168
0.12975702 -0.50007451 1.515893
0.013539158 -0.29473278 1.5276178
0.021626577 -0.29420903 1.5272028
0.083163477 -0.29953972 1.5216252
0.013790744 -0.28099945 1.5281608
0.022013141 -0.27989405 1.5275871
0.029049071 -0.23789749 1.5260334
0.040264323 -0.23790273 1.5255251
0.0081040841 -0.21636239 1.5230001
0.028143384 -0.22655 1.5223022
0.04452499 -0.22652407 1.517893
0.00783596 -0.21019447 1.5230004
0.027210981 -0.2112904 1.5231668
0.050481085 -0.20704187 1.5187018
0.056565594 -0.2064095 1.5247501
0.01449898 -0.18741722 1.5258332
0.026254935 -0.18708676 1.5153502
0.044005141 -0.18845041 1.5186074
0.061471954 -0.1897323 1.5247499
0.014226738 -0.17010972 1.5240334
0.02524302 -0.17295446 1.5221472
0.038870402 -0.17579357 1.5197779
0.067636833 -0.17212793 1.5171582
0.078637995 -0.16961773 1.5259817
0.012504288 -0.15169151 1.5163751
0.022153307 -0.15061799 1.5133483
0.085911401 -0.15243277 1.5205752
0.092606202 -0.14797656 1.5218999
0.01074716 -0.13169555 1.5177917
0.022764184 -0.13399504 1.5134529
0.086169779 -0.13364473 1.516935
0.098510779 -0.13335535 1.5241352
-0.0020884355 -0.12104516 1.52575
0.0088723702 -0.11898567 1.5186214
0.023698056 -0.11685758 1.5167705
0.083087631 -0.12146971 1.5132648
0.10102137 -0.12033287 1.5204715
0.01188976 -0.09431316 1.5185001
0.022979902 -0.10352152 1.5245416
0.10725044 -0.10662227 1.5202501
0.1185637 -0.098600328 1.5193044
-0.0020921996 -0.076518737 1.5285001
0.0067566787 -0.079722561 1.5232641
0.01823879 -0.073478453 1.5185001
0.12282915 -0.086975895 1.51975
0.13445941 -0.081391647 1.5241071
0.01100491 -0.06515377 1.5256248
0.023630479 -0.059831385 1.5185729
0.12482923 -0.065813988 1.5175835
0.13095179 -0.060728814 1.5223957
0.01409851 -0.047455858 1.5219643
0.026792618 -0.045770623 1.5184631
0.041660279 -0.049898978 1.5159582
0.13644195 -0.047117148 1.5202501
0.15096214 -0.043426458 1.52325
0.012582472 -0.025720146 1.525775
0.02384441 -0.028225869 1.5217228
0.15168272 -0.027037708 1.5193353
0.011150485 -0.0095484657 1.5265315
0.024352543 -0.010369777 1.519856
0.15670626 -0.012473547 1.5135835
0.011406904 0.0063873613 1.5271698
0.021675561 0.0079784384 1.5180538
0.15977976 0.0014590621 1.5241251
0.011092801 0.029274797 1.5232941
0.0076429718 0.046226565 1.5273751
0.023293646 0.050806556 1.5176178
0.010997504 0.060972303 1.5274478
0.026795486 0.063483447 1.5191344
0.03966856 0.060904194 1.5125002
0.014050811 0.083092593 1.5234503
0.026828039 0.081809424 1.5205185
0.040358718 0.085068531 1.5168637
0.013653578 0.098238491 1.5237355
0.026660005 0.099400416 1.5208586
0.042436212 0.098323762 1.5158019
0.029712347 0.1160574 1.5160832
0.039061755 0.11411048 1.5135002
0.02541451 0.13520434 1.5209687
0.026322691 0.15352122 1.5260612
0.038173165 0.15207221 1.5235001
0.025541408 0.17047025 1.519524
0.014531445 0.19587722 1.52925
0.024646621 0.18870823 1.516338
0.014531446 0.19971432 1.52925
0.029097991 0.20782927 1.5203173
0.036105372 0.21153192 1.5222501
0.024198219 0.22236198 1.5183698
0.012057479 0.2442583 1.5186089
0.028039159 0.24831328 1.5169784
0.013146465 0.25394115 1.5170001
0.027389759 0.25869739 1.5202423
0.038429137 0.25335526 1.5135001
0.022688793 0.27952895 1.5251073
0.012096874 0.29995367 1.523761
0.023176532 0.29736447 1.5225725
0.012341525 0.31489518 1.5223647
0.025912207 0.31507206 1.5188674
0.042284988 0.31163037 1.5157778
0.013720937 0.33765596 1.5249001
0.021257931 0.33355731 1.5213259
0.012763509 0.34840238 1.5253971
0.025386816 0.35189 1.5208833
0.037983604 0.35828951 1.521
0.015787005 0.36034146 1.5270001
0.026129823 0.3692174 1.5230767
0.037988055 0.36215067 1.5211875
0.026491666 0.38793665 1.5224013
0.025877444 0.40358448 1.5199168
0.028449671 0.4203926 1.5213125
0.03360353 0.43363383 1.52425
0.15216722 -0.61445624 1.5374168
0.14983931 -0.60069823 1.5369135
0.16585119 -0.59478915 1.5331252
0.15251495 -0.58581531 1.5382236
0.16899019 -0.58481449 1.534814
0.14222489 -0.56564999 1.5410626
0.15215932 -0.56735915 1.5356668
0.16847041 -0.56748104 1.535055
0.14187303 -0.55653203 1.53725
0.15298049 -0.54919493 1.5345535
0.16457003 -0.5507189 1.5331407
0.14129208 -0.52585953 1.5402918
0.1503519 -0.53369194 1.5344262
0.12443997 -0.50740314 1.5442501
0.13073148 -0.51364845 1.5423335
0.12260291 -0.49585754 1.5415313
0.12204465 -0.48231098 1.5466251
0.012089295 -0.32652935 1.5439999
-0.0077755069 -0.31160921 1.5434134
0.0078301355 -0.31387514 1.5392267
0.019785756 -0.31324711 1.5400418
-0.0054715988 -0.30245045 1.5437001
0.0059128799 -0.29785812 1.5401156
0.025232878 -0.29884201 1.5378752
-0.0034104518 -0.2740564 1.5466667
0.0063943877 -0.27652848 1.5334921
0.027192771 -0.27871767 1.5411819
-0.0058661015 -0.26017216 1.5431252
0.0075602122 -0.26125181 1.5417813
0.01985871 -0.25320795 1.54575
-0.0068891868 -0.24315834 1.538293
0.0079998299 -0.24293081 1.5366222
0.024142403 -0.24526414 1.5395095
0.04534385 -0.24350923 1.5426958
0.055897199 -0.23855957 1.5465716
-0.0048679826 -0.2228948 1.5392143
0.0081662526 -0.22664391 1.5349888
0.020394402 -0.22479828 1.5345589
0.050575022 -0.22726849 1.5364375
0.055639364 -0.22674628 1.5415001
-0.0051945881 -0.21170555 1.5385331
0.0080950502 -0.20529215 1.5373547
0.020873923 -0.20817414 1.5349249
0.061668046 -0.20654619 1.5358824
-0.0038255793 -0.1872924 1.5400001
0.0062554078 -0.19047071 1.5385137
0.067064553 -0.19125438 1.5354335
0.076064475 -0.18676764 1.5379585
0.10246494 -0.18059731 1.5439376
-0.002116838 -0.16278861 1.5465001
0.007332325 -0.17308243 1.5396667
0.083629861 -0.17405088 1.5317694
0.099593326 -0.16946678 1.5332072
0.11065608 -0.16999769 1.5441111
-0.024121504 -0.15385866 1.5477501
-0.0021034924 -0.1566211 1.5367502
0.0038518196 -0.15411097 1.5342402
0.099317372 -0.15482798 1.5369626
0.11954894 -0.1569764 1.5448411
-0.0060305945 -0.13289069 1.537024
0.0065813405 -0.13723463 1.5323148
0.1038565 -0.13911526 1.5326667
0.11363183 -0.13347018 1.5421095
-0.0060434057 -0.12047035 1.5399079
0.0061635892 -0.11232446 1.5386428
0.11379415 -0.11731954 1.5382506
-0.0052972352 -0.098440513 1.5400242
0.0067209811 -0.10175898 1.5381626
0.11721976 -0.10632031 1.53425
-0.0049573625 -0.081432939 1.540079
0.0017543508 -0.089916669 1.539
0.13641089 -0.082541592 1.5381156
-0.004367678 -0.063654423 1.5420468
0.00365689 -0.061056145 1.5408096
0.13747419 -0.065083794 1.53405
0.1476063 -0.062602937 1.5335791
0.008308745 -0.043056384 1.5390124
0.14187764 -0.052596979 1.53175
0.15023637 -0.052307796 1.5307814
0.0075175227 -0.031268265 1.535078
-0.002095964 -0.0023759177 1.5312501
0.0030331023 -0.0059788446 1.53285
-0.0040446441 0.0093748309 1.5408751
0.003775965 0.00987544 1.5381548
-0.0033986915 0.020813074 1.5413336
0.0053536086 0.025136124 1.5351249
-0.0036753593 0.047876235 1.5314808
-0.0069023897 0.064335704 1.5453982
0.005351183 0.066376306 1.5396003
-0.0076510333 0.079176567 1.544643
0.0057584452 0.080320813 1.541473
-0.0034082469 0.093267985 1.5456667
0.0045931921 0.098922789 1.5374194
0.0086727506 0.11589603 1.5364516
0.020333858 0.11958164 1.5329533
0.0095738638 0.13387373 1.5391666
0.020221872 0.13377938 1.5357692
0.01056451 0.15355603 1.5403094
0.018497027 0.14830957 1.5400001
0.0090486007 0.17106904 1.5377731
0.0187134 0.17181732 1.5313752
0.0076079583 0.18802407 1.5382557
0.018421959 0.18618925 1.5337501
-0.0054354146 0.21116491 1.5435001
0.00796289 0.20720959 1.5368575
0.022638867 0.20979014 1.5327752
-0.0061212685 0.22179706 1.5440624
0.0080117602 0.22496501 1.5383475
0.018787375 0.22374956 1.5336787
-0.005308487 0.24338964 1.5412618
0.0049032085 0.24144077 1.5358484
-0.0021144426 0.25471041 1.5447501
0.0076371306 0.2626622 1.5396819
0.020016022 0.26619545 1.53795
0.011395645 0.27628624 1.5458523
0.019776933 0.27701166 1.5394374
0.0081786243 0.29567599 1.5373453
0.0061766668 0.31613266 1.5370002
0.010239114 0.3317247 1.534762
0.010032238 0.35646215 1.5401787
0.015492961 0.36975807 1.5343215
0.019679919 0.37173185 1.5318333
0.015841929 0.38338202 1.5323126
0.022727938 0.40959749 1.5361667
0.025203859 0.42333931 1.5406001
0.03296553 0.44032863 1.5342917
0.12599118 -0.61441946 1.5635
0.13499977 -0.61753273 1.5548751
0.14734414 -0.61729658 1.5542814
0.12583002 -0.60971546 1.5615001
0.13570355 -0.60396171 1.554983
0.14604144 -0.60948455 1.5542501
0.12473735 -0.58198309 1.5641875
0.13654131 -0.58499837 1.5551169
0.13421772 -0.56777567 1.5575109
0.13745573 -0.55044472 1.5574361
0.14586133 -0.54901165 1.5523334
0.13704765 -0.53274506 1.5609607
0.12338478 -0.51277822 1.558893
0.12809202 -0.51688945 1.55725
0.12023354 -0.49585828 1.5566667
-0.01066664 -0.34996098 1.565389
0.00047544957 -0.34549761 1.5655833
-0.0093717622 -0.332937 1.564863
0.0039033012 -0.33352613 1.5639378
0.02133197 -0.3292551 1.5589445
-0.023837345 -0.3097527 1.5655001
-0.014355234 -0.316302 1.5645336
0.023930015 -0.3165738 1.5585313
-0.025692934 -0.29686335 1.5646002
-0.010482335 -0.29668409 1.563006
0.00099609233 -0.29589733 1.5609001
0.032212276 -0.29671067 1.5611924
0.04491809 -0.29397258 1.5631517
0.056241881 -0.29307273 1.5630001
-0.025696103 -0.28512412 1.564817
-0.010370241 -0.28311783 1.5607225
0.00047048935 -0.28747109 1.5492501
0.029431393 -0.2766324 1.5556407
0.04496162 -0.28378612 1.5646604
